ply
format ascii 1.0
element vertex 679
property float x
property float y
property float z
property float nx
property float ny
property float nz
property uchar diffuse_red
property uchar diffuse_green
property uchar diffuse_blue
end_header
-0.0686049 -0.101837 -0.807821 0.355526 0.714226 0.602895 119 91 66
-0.0672994 -0.101522 -0.808371 0.347963 0.688727 0.636064 86 67 53
-0.0666504 -0.100299 -0.810385 0.375541 0.722888 0.580002 145 119 87
-0.06655 -0.100314 -0.811471 0.353994 0.783877 0.510122 146 121 89
-0.0543611 -0.0922946 -0.825643 0.292319 0.817459 0.496297 82 66 51
-0.0536412 -0.0923023 -0.826056 0.301145 0.835432 0.459744 81 64 50
-0.044763 -0.0867616 -0.835164 0.908689 0.416846 -0.022902 215 218 223
-0.0306703 -0.0807396 -0.844564 0.37004 0.833141 0.411031 198 201 209
-0.0296064 -0.0802128 -0.843505 0.419195 0.818182 0.393515 209 212 220
-0.0307015 -0.0807371 -0.844632 0.413334 0.821334 0.393147 198 201 209
-0.0327224 -0.0796082 -0.848426 0.469372 0.768838 0.434257 208 212 219
-0.0307484 -0.0800186 -0.846541 0.392322 0.808775 0.438139 209 212 219
-0.0209197 -0.0768542 -0.848106 -0.184182 0.1524 0.971005 157 161 156
0.00189227 -0.0748436 -0.841198 0.991674 -0.0763156 0.103725 167 169 161
0.0153755 -0.0712758 -0.842371 0.597179 0.609805 0.521071 131 132 125
0.0111457 -0.0583295 -0.88263 -0.125686 -0.0242485 0.991774 120 122 106
0.0159285 -0.0532004 -0.89222 0.327254 0.527677 0.783876 177 177 177
0.0147791 -0.0502866 -0.902011 0.0283869 0.532544 0.845926 190 191 192
0.019154 -0.0498047 -0.901789 -0.0686787 0.454754 0.887965 212 213 217
0.0173312 -0.0477315 -0.906561 -0.177133 0.283931 0.942341 211 213 216
0.023466 -0.0441136 -0.913441 0.0340357 -0.0851729 0.995785 205 206 209
0.0262636 -0.043971 -0.912751 0.314319 0.677251 0.665232 203 204 208
0.0301429 -0.0418409 -0.917324 0.236816 0.680118 0.6938 163 164 167
0.0317931 -0.0412565 -0.918156 0.360649 0.651071 0.667861 148 150 153
0.0321492 -0.0397709 -0.920099 0.322502 0.66121 0.677343 173 176 178
0.0356226 -0.0381489 -0.923057 0.331824 0.652702 0.681082 199 200 203
0.0352053 -0.0376442 -0.924414 0.276026 0.707381 0.650708 202 204 207
0.0360245 -0.0385284 -0.923294 0.144467 0.672082 0.726247 187 188 192
0.0364174 -0.0367663 -0.926399 0.324692 0.652955 0.68427 204 207 209
0.0379685 -0.0361721 -0.928029 0.225234 0.666157 0.710988 200 202 204
0.0408826 -0.0346423 -0.930343 0.39382 0.607395 0.689911 164 165 169
0.0431347 -0.0329067 -0.932995 0.346377 0.608121 0.714291 133 135 138
0.0439851 -0.032759 -0.933669 0.274828 0.657521 0.701524 134 137 142
0.0453452 -0.0325174 -0.934556 0.397842 0.59414 0.699085 167 168 172
0.0524441 -0.0278786 -0.942853 0.306807 0.624567 0.718182 196 197 202
0.0528237 -0.0272032 -0.943421 0.494052 0.545861 0.676718 193 194 198
0.0548268 -0.0259919 -0.945154 0.140261 0.649096 0.747664 184 186 191
0.055855 -0.0250058 -0.947375 0.212767 0.653364 0.72653 196 199 202
0.0597995 -0.0239358 -0.949362 0.174051 0.630625 0.756319 191 190 188
0.059799 -0.0237415 -0.950472 0.282054 0.617751 0.73405 190 189 187
-0.0763074 -0.107864 -0.799062 0.360594 0.76353 0.535719 115 85 57
-0.0762329 -0.107574 -0.798807 0.365437 0.840667 0.399669 117 86 59
-0.0720106 -0.105921 -0.801575 0.357525 0.737388 0.573093 121 90 62
-0.0711334 -0.105217 -0.803188 0.369517 0.873554 0.316798 140 109 80
-0.0699313 -0.103591 -0.805411 0.351835 0.689732 0.632837 124 94 63
-0.0685945 -0.10341 -0.806249 0.422129 0.58685 0.690952 124 94 63
-0.0684639 -0.103467 -0.806238 0.433815 0.598264 0.67371 124 94 63
-0.0684003 -0.102994 -0.806758 0.351227 0.727521 0.589366 128 97 68
-0.067654 -0.102604 -0.807289 0.345857 0.628958 0.696272 129 98 69
-0.0664754 -0.102351 -0.808149 0.351774 0.768567 0.534378 108 82 60
-0.0656034 -0.101968 -0.80895 0.367935 0.859585 0.354594 76 61 50
-0.0661761 -0.101305 -0.809199 0.353444 0.690362 0.631251 93 76 56
-0.0649963 -0.10114 -0.810082 0.348073 0.748984 0.563799 141 114 82
-0.0492596 -0.091294 -0.827603 0.442115 0.824085 0.354144 107 84 70
-0.0484296 -0.0905123 -0.830253 0.372166 0.846334 0.381066 217 219 227
0.00281439 -0.0751241 -0.841585 0.225296 -0.909428 0.349547 170 173 166
0.0112716 -0.0624437 -0.873629 0.1832 0.467608 0.864743 122 124 109
0.0118737 -0.0617813 -0.873719 0.941394 0.272544 0.198737 124 126 112
0.0121123 -0.0615257 -0.873817 0.907837 -0.417965 0.0337132 124 127 112
0.016646 -0.0556816 -0.887712 0.649374 -0.173488 0.740416 164 165 160
0.0170032 -0.054376 -0.892576 0.950669 -0.285296 0.1218 174 174 173
0.0149563 -0.0514058 -0.900471 0.0882808 0.455072 0.886068 181 181 181
0.0156122 -0.0516811 -0.89999 0.327728 0.698053 0.636644 181 182 182
0.0160094 -0.0509543 -0.901428 0.236138 0.614405 0.752825 193 194 194
0.0226814 -0.0489153 -0.904106 0.536686 0.576021 0.616577 204 205 208
0.0267679 -0.044818 -0.912841 0.197657 0.696988 0.689303 204 206 209
0.0281113 -0.04472 -0.913533 -0.0210119 0.386923 0.921873 204 206 209
0.0331587 -0.041 -0.919014 0.38721 0.64796 0.655909 155 157 160
0.0346999 -0.0411085 -0.919539 0.458106 0.620622 0.636371 156 158 160
0.0343638 -0.0410556 -0.919297 0.363308 0.645868 0.671463 152 154 156
0.0382281 -0.038983 -0.923022 0.460474 0.578405 0.673358 190 192 195
0.0375064 -0.0379486 -0.925186 0.267753 0.66436 0.697806 203 205 208
0.0390755 -0.0374408 -0.926145 0.176345 0.67224 0.719024 206 207 210
0.0403571 -0.0368563 -0.927969 0.295274 0.661634 0.689241 203 205 207
0.041611 -0.0361496 -0.929211 0.319207 0.64839 0.691157 168 170 174
0.0453277 -0.0338784 -0.933246 0.300691 0.64748 0.700254 148 150 154
0.0511741 -0.0299808 -0.939514 0.495013 0.547521 0.674672 190 192 198
0.0513138 -0.0306321 -0.938482 0.246236 0.644327 0.724024 199 201 206
0.0542838 -0.0284791 -0.943457 0.509609 0.537976 0.671476 194 196 198
0.0550607 -0.0285434 -0.943148 -0.334241 0.459054 0.823136 200 201 203
0.0558372 -0.0264988 -0.945752 0.230512 0.682561 0.693523 178 181 183
0.0575381 -0.0258296 -0.947452 0.141879 0.649902 0.746658 193 193 197
0.0629267 -0.0216644 -0.955265 0.584956 0.488202 0.647677 188 188 180
-0.0754588 -0.108516 -0.798474 0.368944 0.522131 0.768934 109 82 55
-0.073906 -0.107606 -0.799511 0.368421 0.865425 0.339567 120 90 61
-0.0719532 -0.106753 -0.801407 0.357917 0.580208 0.731611 129 97 70
-0.0699265 -0.106091 -0.802567 0.357243 0.815193 0.455892 122 90 63
-0.0706094 -0.104681 -0.804713 0.350871 0.692246 0.630623 135 106 76
-0.0687117 -0.104466 -0.805185 0.350296 0.728868 0.588255 126 97 66
-0.0684899 -0.104441 -0.805298 0.348339 0.692977 0.631224 123 94 63
-0.0672217 -0.104331 -0.805947 0.34461 0.627836 0.697901 122 92 62
-0.0672859 -0.104237 -0.806024 0.346088 0.610987 0.711981 122 92 62
-0.0652101 -0.103212 -0.807794 0.353809 0.789071 0.502182 122 91 60
-0.0638259 -0.102034 -0.809428 0.336804 0.616401 0.711767 103 82 62
-0.0477812 -0.0911179 -0.830198 0.365364 0.851092 0.37703 216 220 227
-0.0286405 -0.0814313 -0.84721 0.374404 0.83269 0.407981 197 200 209
-0.0273455 -0.0791422 -0.85051 -0.16282 -0.389426 0.906552 93 95 101
0.00258596 -0.0754084 -0.842177 0.303378 -0.909277 0.284914 170 172 166
0.00272177 -0.0749187 -0.843784 0.751573 -0.655707 0.0720134 171 173 166
0.0148091 -0.0713947 -0.846525 0.922152 -0.0949027 0.375005 135 137 131
0.0164405 -0.0698064 -0.850347 0.800269 -0.592441 0.0926454 80 81 72
0.0166262 -0.068554 -0.853867 0.983012 -0.181448 0.0276543 76 77 62
0.0114471 -0.0650414 -0.868681 0.158762 0.322052 0.933315 102 103 86
0.0125028 -0.0643374 -0.868434 -0.0821788 0.0776694 0.993587 122 123 109
0.0128893 -0.0611772 -0.878551 0.0323745 0.687216 0.725731 111 114 97
0.0170724 -0.0538633 -0.894982 0.439375 0.615169 0.654612 179 179 178
0.0165662 -0.0527214 -0.89933 0.250115 0.664356 0.704324 181 182 181
0.0169438 -0.0527474 -0.899337 0.24545 0.531738 0.810561 181 182 182
0.0210663 -0.0503953 -0.902451 0.187772 0.702107 0.686868 208 209 212
0.0218907 -0.0495733 -0.904562 0.119384 0.696603 0.707454 208 209 214
0.0335007 -0.0424616 -0.918526 0.355744 0.688176 0.632345 165 167 170
0.0357344 -0.0416237 -0.919503 0.444831 0.627499 0.639039 160 161 164
0.0369908 -0.0415308 -0.920229 0.468338 0.578314 0.667992 151 152 155
0.0381605 -0.0400983 -0.922463 0.458663 0.584449 0.669364 194 196 198
0.0396064 -0.0384792 -0.925163 0.413459 0.605888 0.67967 205 207 210
0.0392651 -0.0385083 -0.924994 0.418418 0.544428 0.726997 203 205 208
0.0395161 -0.038583 -0.925034 0.427201 0.594344 0.681362 203 205 209
0.0405395 -0.0379606 -0.926684 0.259579 0.677865 0.687835 207 209 212
0.0452502 -0.0353046 -0.931554 0.375898 0.612864 0.695053 162 165 170
0.0458193 -0.0349028 -0.932606 0.380523 0.652447 0.655375 131 135 140
0.0466682 -0.0336786 -0.933957 0.216137 0.67862 0.701968 127 129 133
0.0558692 -0.0284875 -0.944158 0.432679 0.403944 0.805989 193 195 196
0.0573314 -0.0285165 -0.944499 0.579497 -0.299484 0.757953 193 194 195
0.0575291 -0.0273037 -0.946027 0.17429 0.679227 0.712933 191 191 194
0.0590088 -0.0265356 -0.947293 0.301052 0.618242 0.726047 187 188 191
0.0606355 -0.0256995 -0.948943 0.411928 0.500514 0.761447 206 206 208
0.0607757 -0.0258769 -0.949481 0.48935 0.608737 0.62448 199 201 202
0.0604148 -0.0258795 -0.949365 0.60603 0.518686 0.603069 200 201 202
0.0604147 -0.0258794 -0.949366 0.606219 0.518299 0.603212 200 201 202
0.0622971 -0.0248711 -0.950375 0.36179 0.591469 0.720606 188 187 185
0.0631836 -0.0242017 -0.952277 0.324037 0.637897 0.698632 181 181 177
0.0633228 -0.0234216 -0.953324 0.246008 0.655247 0.714235 178 178 173
0.0647766 -0.023213 -0.954737 0.468849 0.561628 0.681729 164 165 158
-0.0747988 -0.108741 -0.798622 0.385428 0.313773 0.867751 109 82 54
-0.0729434 -0.108681 -0.799001 0.357489 0.660001 0.660757 108 80 52
-0.0721608 -0.107782 -0.800342 0.354947 0.713043 0.604634 124 94 66
-0.0708861 -0.106976 -0.801723 0.435987 0.45411 0.776981 127 95 68
-0.0685093 -0.106129 -0.803499 0.350048 0.752972 0.557225 134 103 77
-0.0678456 -0.105235 -0.804001 0.358223 0.832301 0.423026 134 105 76
-0.0675899 -0.105206 -0.80397 0.360641 0.846644 0.39132 134 105 76
-0.0675899 -0.105206 -0.80397 0.360641 0.846644 0.39132 134 105 76
-0.0677834 -0.104918 -0.80482 0.400783 0.89003 0.2173 133 105 74
-0.0635519 -0.103167 -0.808582 0.336053 0.536236 0.774286 100 73 53
-0.0468541 -0.0917517 -0.829759 0.380853 0.852893 0.357106 216 219 226
-0.0287745 -0.0820583 -0.84632 0.367682 0.821668 0.435513 209 212 220
0.0140638 -0.0741272 -0.841041 0.9671 -0.175099 0.184548 134 135 129
0.0133839 -0.0736457 -0.842988 0.146406 -0.800348 0.581385 132 132 127
0.0131034 -0.0733094 -0.844851 0.856784 -0.350619 0.378137 137 137 130
0.0156107 -0.0707685 -0.850789 0.720198 -0.69295 0.0336824 125 125 117
0.0161132 -0.0703254 -0.851462 0.873986 -0.485951 0.000571311 80 81 69
0.0168637 -0.0700236 -0.851452 0.162149 -0.795218 0.58424 75 76 64
0.0162006 -0.069636 -0.852931 0.943205 -0.332156 0.00603718 69 70 57
0.0162963 -0.0691033 -0.855193 0.965329 -0.260197 0.0209267 73 74 58
0.0133872 -0.0652143 -0.868067 0.341357 0.733534 0.587711 107 109 93
0.0130951 -0.0624827 -0.876852 0.615319 0.631835 0.471346 110 113 95
0.0133843 -0.0616876 -0.877909 0.618156 0.642618 0.452687 117 119 102
0.0144706 -0.061899 -0.877555 0.562247 0.600878 0.568177 112 115 97
0.0154055 -0.0599548 -0.88286 0.816818 0.464606 0.34198 122 124 108
0.0180938 -0.0573687 -0.888855 0.682538 0.545474 0.486416 163 164 160
0.0179259 -0.0565027 -0.891939 0.784916 0.481827 0.389551 167 168 165
0.017786 -0.0547658 -0.89475 0.2263 0.713445 0.663162 178 179 175
0.0169881 -0.0548011 -0.89741 0.632499 0.539918 0.555369 176 177 173
0.0177855 -0.0543899 -0.896351 0.0824002 0.699561 0.709806 181 183 178
0.0238677 -0.0506824 -0.903734 0.424881 0.653318 0.626619 205 205 209
0.0241609 -0.0507794 -0.904284 0.251444 0.703737 0.664478 193 193 197
0.025646 -0.0496184 -0.906069 0.543849 0.660554 0.517586 202 205 203
0.0328983 -0.044518 -0.917005 0.140635 -0.094892 0.985503 204 205 208
0.0369918 -0.04272 -0.919195 0.393514 0.630677 0.668874 169 171 173
0.0394339 -0.0412449 -0.921973 0.457011 0.617184 0.640488 167 170 172
0.0419949 -0.0387952 -0.926303 0.222073 0.691692 0.687201 208 210 213
0.0431421 -0.0372289 -0.928768 0.330821 0.643439 0.690321 205 207 210
0.0438719 -0.0369755 -0.929119 0.352472 0.630494 0.691549 187 189 193
0.0452125 -0.0366241 -0.93008 0.243147 0.662184 0.708796 175 178 182
0.0465823 -0.0362449 -0.931623 0.389003 0.600163 0.698914 184 186 190
0.0522366 -0.032378 -0.93754 0.358309 0.58961 0.723861 209 210 212
0.0552826 -0.0311527 -0.941086 0.476913 0.631283 0.611584 198 200 201
0.0552826 -0.0311527 -0.941086 0.476913 0.631283 0.611584 198 200 201
0.0557809 -0.0300916 -0.941335 -0.442427 0.313136 0.840359 208 209 211
0.0569871 -0.0299604 -0.943195 0.455474 0.632012 0.62698 204 206 206
0.0587678 -0.0288873 -0.945175 0.472406 0.518384 0.712819 194 195 196
0.0605022 -0.027489 -0.947298 0.232665 0.366892 0.900698 183 184 185
0.0651949 -0.0251233 -0.952396 0.613796 0.464837 0.638107 184 185 185
-0.0712237 -0.109504 -0.798625 0.353489 0.820699 0.448885 108 81 54
-0.0715484 -0.108457 -0.799822 0.354239 0.695672 0.624944 126 96 68
-0.0709553 -0.108677 -0.799985 0.355007 0.83925 0.411861 127 96 68
-0.06859 -0.107088 -0.802325 0.350617 0.783699 0.512722 117 85 58
-0.0673533 -0.106994 -0.803232 0.349385 0.802801 0.483156 133 104 74
-0.0656738 -0.10596 -0.805055 0.350251 0.822121 0.448822 131 101 70
-0.0659155 -0.10517 -0.805739 0.557037 0.826643 0.0798175 123 91 62
-0.0647878 -0.104134 -0.807752 0.337298 0.531281 0.777155 124 95 64
-0.0632181 -0.104289 -0.80773 0.335406 0.611504 0.716635 124 93 63
-0.0634962 -0.103774 -0.808397 0.335486 0.508123 0.793259 118 84 55
-0.0279892 -0.0827513 -0.847067 0.367919 0.838743 0.40143 197 200 204
0.0122134 -0.075789 -0.840425 0.859242 -0.495676 0.126526 139 141 134
0.0126398 -0.0755327 -0.840827 0.910352 -0.381822 0.159595 133 136 129
0.0133215 -0.0750764 -0.84089 0.913714 -0.0278713 0.4054 132 133 127
0.0133976 -0.0749031 -0.841497 0.324839 -0.865836 0.380536 134 135 129
0.0126254 -0.0745975 -0.843742 0.605515 -0.581456 0.543379 137 137 133
0.0129205 -0.0740468 -0.844127 0.710559 -0.583681 0.392966 137 137 132
0.0152667 -0.0716751 -0.850637 0.887419 -0.460354 0.0236965 133 133 128
0.0154772 -0.0711098 -0.851712 0.91949 -0.393108 -0.00210395 134 135 126
0.0157215 -0.0707341 -0.852808 0.881071 -0.461583 0.103219 124 125 113
0.0160992 -0.0702264 -0.853612 0.928846 -0.370313 0.0106655 83 83 70
0.0162613 -0.0702813 -0.853427 0.779481 -0.614847 0.11989 85 86 73
0.0159664 -0.069578 -0.854969 0.994816 -0.0924657 0.0423256 70 71 56
0.0138903 -0.0676506 -0.863199 0.87136 0.426911 0.241824 88 91 71
0.0139347 -0.0676718 -0.863109 0.880803 0.412105 0.233145 88 91 71
0.013173 -0.0673358 -0.86348 0.893784 0.391488 0.218831 86 89 69
0.013173 -0.0673358 -0.86348 0.893784 0.391488 0.218831 86 89 69
0.0153564 -0.0680204 -0.861791 0.580748 0.679635 0.448139 78 80 64
0.0141881 -0.0671533 -0.864987 0.608028 0.663272 0.436316 90 91 75
0.0129355 -0.0659143 -0.867888 0.342059 0.735427 0.584929 100 102 86
0.0128256 -0.0658593 -0.868116 0.309572 0.731678 0.6073 102 104 88
0.0146074 -0.0660249 -0.867711 0.315507 0.737763 0.596792 105 107 91
0.0156864 -0.0656797 -0.866533 0.814112 0.473992 0.335489 109 111 95
0.0140591 -0.0625926 -0.877784 0.631702 0.607093 0.48207 112 115 97
0.0165216 -0.0625092 -0.875474 0.625984 0.63457 0.453283 113 116 99
0.0170734 -0.0620116 -0.877434 0.934223 0.266574 0.236995 120 124 106
0.0171595 -0.0612523 -0.878828 0.868194 0.373605 0.326588 119 122 106
0.0173027 -0.0612243 -0.878789 0.86509 0.378242 0.329474 119 122 106
0.0187115 -0.0620537 -0.877734 0.894389 0.321394 0.311086 122 125 109
0.0186153 -0.0621026 -0.877463 0.884658 0.341421 0.317508 121 123 108
0.0174039 -0.0610842 -0.878989 0.873095 0.361054 0.327637 119 122 105
0.0170443 -0.0609962 -0.879449 0.815474 0.452394 0.36103 119 122 106
0.0181908 -0.0606066 -0.880362 0.819272 0.442697 0.364435 123 125 109
0.0176996 -0.0602671 -0.881989 0.84447 0.406491 0.348762 125 128 110
0.0174018 -0.059203 -0.884587 0.688913 0.629315 0.359669 132 134 121
0.0175184 -0.0594474 -0.884903 0.641627 0.51482 0.568574 131 133 120
0.0180513 -0.0588832 -0.886902 0.513512 0.674359 0.530608 107 107 102
0.0180809 -0.0582907 -0.88778 0.490793 0.702784 0.514993 156 158 153
0.0181794 -0.0574787 -0.890584 0.735715 0.480147 0.477684 165 165 162
0.038297 -0.0427115 -0.919639 0.198935 0.6835 0.70232 168 171 173
0.0401009 -0.0427071 -0.920464 0.250389 0.694513 0.674505 166 168 171
0.0404641 -0.0412457 -0.922486 0.487422 0.602165 0.632311 183 185 188
0.0428884 -0.0398778 -0.925307 0.31445 0.65715 0.685036 188 190 193
0.0440301 -0.0398413 -0.925959 0.273939 0.67291 0.687132 195 197 201
0.0439831 -0.0383127 -0.927949 0.429501 0.588566 0.684923 208 211 213
0.0465924 -0.0373525 -0.930313 0.399937 0.638599 0.657451 186 189 192
0.0492699 -0.0358716 -0.932923 0.244805 0.658669 0.711495 138 140 146
0.0507472 -0.035408 -0.934124 0.283504 0.649331 0.705687 156 157 162
0.0516993 -0.0338287 -0.93619 0.275355 0.650807 0.707551 146 148 152
0.0522829 -0.0337839 -0.936557 0.235104 0.668102 0.70595 155 156 161
0.0549911 -0.032962 -0.93827 0.331132 0.619916 0.711376 208 210 211
0.0550029 -0.0329545 -0.938296 0.312236 0.629837 0.711206 208 210 211
0.0571482 -0.0308878 -0.941786 0.198318 0.655211 0.72895 197 198 199
0.0581235 -0.0306501 -0.942917 -0.138842 0.186572 0.972581 200 201 202
0.0589866 -0.0307515 -0.942565 0.162541 0.183041 0.969575 205 205 206
0.0600407 -0.0287889 -0.946129 0.391151 0.363989 0.845288 195 196 196
0.0626904 -0.0276701 -0.948403 0.474991 0.618272 0.626197 179 180 181
0.0653014 -0.0252768 -0.951895 0.506437 0.503049 0.700331 188 188 188
0.0661051 -0.0252682 -0.951769 0.339029 0.592133 0.731053 191 191 191
-0.070375 -0.109335 -0.799592 0.353601 0.853036 0.383792 124 94 66
-0.0696901 -0.10953 -0.799493 0.349447 0.793943 0.497534 123 92 65
-0.0692337 -0.109041 -0.800255 0.350159 0.679109 0.645136 127 97 68
-0.0677591 -0.107864 -0.802107 0.383224 0.630856 0.674656 124 92 64
-0.0659997 -0.107829 -0.802765 0.346808 0.804654 0.48193 117 86 59
-0.0655991 -0.106961 -0.803884 0.342244 0.698952 0.627961 133 102 71
-0.064268 -0.106785 -0.804523 0.352741 0.828884 0.434194 136 107 74
-0.0642358 -0.106779 -0.804648 0.34367 0.792765 0.503403 136 107 74
-0.0639856 -0.105912 -0.805811 0.339541 0.680092 0.64976 114 83 58
-0.063965 -0.105977 -0.805753 0.33852 0.692567 0.636989 113 83 58
-0.0628059 -0.105162 -0.808131 0.337272 0.762498 0.552127 125 92 63
-0.0268047 -0.0828634 -0.848257 0.412669 0.452316 0.790642 195 198 205
0.00167954 -0.0781201 -0.843537 -0.244892 -0.40303 0.881813 172 175 169
0.0125071 -0.0751308 -0.844512 0.664686 -0.643488 0.379625 139 139 136
0.0131105 -0.0744857 -0.845312 0.23791 -0.233543 0.942792 117 116 107
0.0129216 -0.0750613 -0.84507 0.205786 -0.173785 0.963042 128 127 121
0.0146817 -0.0738505 -0.847555 0.924622 0.0478842 0.377863 134 133 125
0.0141903 -0.0733971 -0.847278 0.950819 0.15992 0.265273 136 132 123
0.0152504 -0.0716783 -0.852771 0.919861 -0.392234 0.0028868 136 137 128
0.0157452 -0.0712795 -0.854105 0.912513 -0.406656 0.0441641 136 137 127
0.0155892 -0.0712585 -0.853663 0.888464 -0.458716 0.0145796 135 136 125
0.0162293 -0.0708593 -0.854453 0.987999 -0.141311 0.0623588 133 134 123
0.0160291 -0.0706029 -0.85504 0.968067 0.188126 0.165695 127 128 117
0.0162623 -0.0700604 -0.855853 0.959209 0.162671 0.231208 90 91 79
0.0154202 -0.0684886 -0.862222 0.838079 0.451067 0.306859 79 81 67
0.0165641 -0.0649477 -0.872104 0.681412 0.60179 0.416564 114 117 101
0.0164656 -0.0646316 -0.874188 0.68981 0.594101 0.41377 118 120 104
0.0164341 -0.0646079 -0.874217 0.700496 0.585195 0.408475 118 120 104
0.0165623 -0.0639698 -0.875342 0.703772 0.580262 0.409879 120 122 105
0.0173031 -0.0637842 -0.874952 0.882206 0.348077 0.317105 121 123 106
0.0167307 -0.0630531 -0.876784 0.760276 0.523538 0.384562 120 123 105
0.0178344 -0.0632897 -0.876759 0.852222 0.350982 0.387981 121 124 108
0.0180586 -0.0626305 -0.877473 0.845021 0.346652 0.407151 120 123 108
0.0181568 -0.0626087 -0.877558 0.860808 0.340925 0.377861 121 124 108
0.0183615 -0.061404 -0.882117 0.778876 0.492525 0.388292 137 138 123
0.0184336 -0.0605935 -0.88382 0.841891 0.40818 0.353001 136 137 125
0.0180868 -0.059658 -0.885788 0.685644 0.632845 0.359721 73 74 68
0.0180868 -0.059658 -0.885788 0.685644 0.632845 0.359721 73 74 68
0.0190859 -0.0592917 -0.887436 0.737747 0.529641 0.41858 157 158 154
0.018094 -0.0583568 -0.889539 0.687047 0.574414 0.444989 159 159 155
0.0188977 -0.0584243 -0.889972 0.852807 0.397296 0.338934 164 164 159
0.0180524 -0.0575477 -0.89254 0.74377 0.359796 0.56334 167 168 165
0.02376 -0.0549952 -0.897784 -0.285745 0.244129 0.926688 206 207 211
0.0270703 -0.0510254 -0.904801 0.161638 0.701561 0.694035 121 108 93
0.0276869 -0.0508582 -0.906303 0.41187 0.727595 0.548606 134 121 110
0.0279694 -0.0509924 -0.906128 0.200094 0.709705 0.675486 130 117 102
0.0273512 -0.0507441 -0.905957 0.35288 0.711217 0.607985 135 124 113
0.0344378 -0.0470899 -0.913625 -0.184773 0.278062 0.942624 207 208 210
0.0348204 -0.047039 -0.914083 0.641934 0.535743 0.548544 206 207 209
0.0344742 -0.0469487 -0.914412 -0.0240182 -0.140467 0.989794 207 207 209
0.0381681 -0.0436036 -0.919246 0.463373 0.606367 0.646223 181 183 186
0.0394196 -0.0434722 -0.919971 0.361514 0.679825 0.638079 176 179 183
0.0412837 -0.0433399 -0.920556 0.313717 0.717388 0.622042 172 174 178
0.0416118 -0.0421541 -0.922196 0.439251 0.64855 0.621644 156 159 162
0.0466095 -0.0390789 -0.927735 0.331087 0.676508 0.657813 208 211 213
0.0480022 -0.0384276 -0.930002 0.379908 0.674328 0.633207 205 208 210
0.047922 -0.0372513 -0.931501 0.481784 0.544651 0.686469 202 205 207
0.0493124 -0.0372776 -0.931539 0.253825 0.671306 0.696363 205 208 212
0.0499799 -0.0369781 -0.932141 0.282329 0.658216 0.697884 190 193 197
0.0514045 -0.0365855 -0.933193 0.2356 0.675252 0.698948 159 160 166
0.0522459 -0.0351721 -0.935182 0.365879 0.601761 0.709941 133 134 140
0.0535256 -0.0347727 -0.935649 0.304487 0.619942 0.72316 159 161 163
0.0549902 -0.0342788 -0.937121 0.331529 0.618412 0.712499 167 169 171
0.0589305 -0.0327057 -0.938972 -0.129389 0.107194 0.985783 205 207 208
0.0595072 -0.0316711 -0.94281 0.258699 0.646202 0.717982 200 201 202
0.0600806 -0.0307299 -0.942802 0.144443 0.0148318 0.989402 205 206 207
0.0613715 -0.0306802 -0.943587 0.197162 0.353371 0.91447 205 206 208
0.0614043 -0.0303186 -0.945229 -0.346507 0.556758 0.754952 206 206 209
0.0626805 -0.0292901 -0.946819 0.748997 0.274912 0.602849 194 195 194
-0.0701932 -0.110386 -0.798252 0.349831 0.800907 0.48597 107 79 53
-0.0701076 -0.110437 -0.798272 0.349478 0.77619 0.52478 107 79 53
-0.0690894 -0.110174 -0.799064 0.347525 0.763338 0.544557 111 81 55
-0.0675206 -0.109292 -0.800041 0.355258 0.534655 0.766769 127 97 67
-0.0674457 -0.109407 -0.80009 0.348372 0.646167 0.679047 127 97 67
-0.0667872 -0.108726 -0.801903 0.358129 0.508453 0.783083 127 96 66
-0.0643484 -0.107801 -0.803467 0.380037 0.693495 0.612075 138 109 78
-0.06305 -0.106703 -0.805343 0.338696 0.751023 0.566788 102 75 50
-0.0628165 -0.10625 -0.806608 0.353213 0.872634 0.337269 116 88 62
-0.0614496 -0.105613 -0.807197 0.678658 0.25516 0.688707 127 92 64
-0.0605277 -0.105006 -0.808285 0.336684 0.774123 0.536076 122 89 60
-0.0272209 -0.0837743 -0.849841 0.420008 0.824179 0.379899 199 202 210
-0.0272209 -0.0837743 -0.849841 0.420008 0.824179 0.379899 199 202 210
-0.0153772 -0.0810342 -0.848276 0.197536 0.590185 0.782727 121 123 120
-0.0113629 -0.0810175 -0.846721 -0.115577 -0.349486 0.929786 170 175 168
-0.0113629 -0.0810175 -0.846721 -0.115577 -0.349486 0.929786 170 175 168
-0.0102988 -0.0808011 -0.845921 0.111501 0.0898798 0.989691 163 168 160
0.0124488 -0.0762039 -0.84408 0.952783 -0.293032 0.0796124 134 134 128
0.0144227 -0.0742733 -0.847118 0.935877 0.180235 0.302736 142 138 127
0.0159408 -0.0716774 -0.85523 0.979962 -0.197199 0.0280608 136 137 128
0.0169757 -0.0705738 -0.856661 0.916947 0.34873 0.193894 134 136 124
0.0155713 -0.0703033 -0.858444 0.941415 0.292629 0.167651 137 138 127
0.0166581 -0.0697368 -0.858714 0.83662 0.476877 0.269547 118 119 106
0.0157288 -0.0689954 -0.863098 0.958401 0.104357 0.265665 136 137 127
0.0161081 -0.068571 -0.863661 0.982965 -0.0783329 0.166267 136 138 127
0.0163173 -0.0680352 -0.864557 0.944122 -0.26589 0.194772 132 135 122
0.0184177 -0.0636803 -0.87777 0.859607 0.334044 0.386639 137 139 124
0.0190191 -0.0632475 -0.87735 0.954455 0.151351 0.257118 133 135 119
0.0184794 -0.0620624 -0.880922 0.854429 0.392974 0.339887 138 140 125
0.0191517 -0.0625926 -0.881133 0.894046 0.343252 0.287853 146 149 135
0.0189126 -0.0617463 -0.883621 0.836881 0.416893 0.354725 126 128 118
0.0191801 -0.0601735 -0.886272 0.443804 0.675349 0.589018 109 109 105
0.0192415 -0.0573477 -0.896066 0.435037 0.689847 0.578666 180 181 180
0.0238261 -0.0540658 -0.903617 -0.392621 0.314948 0.864093 204 207 212
0.0289457 -0.0515217 -0.906303 0.285042 0.72596 0.625885 121 99 79
0.0289457 -0.0515217 -0.906303 0.285042 0.72596 0.625885 121 99 79
0.0289457 -0.0515217 -0.906303 0.285042 0.72596 0.625885 121 99 79
0.0332071 -0.049615 -0.909997 0.158443 0.618183 0.7699 207 209 213
0.0409489 -0.0442048 -0.920473 0.344196 0.68887 0.637956 183 185 188
0.0450184 -0.0421269 -0.923802 0.410442 0.608958 0.678755 182 184 186
0.0475452 -0.0401498 -0.927483 0.323631 0.645071 0.692203 209 211 214
0.0485973 -0.0399702 -0.927922 0.322911 0.629542 0.706686 208 210 213
0.0493142 -0.03851 -0.930429 0.287624 0.696245 0.657659 206 209 212
0.0514219 -0.0377799 -0.93219 0.266595 0.658602 0.703683 208 209 213
0.0549764 -0.035605 -0.935867 0.380758 0.595332 0.707533 139 140 145
0.0564863 -0.0338253 -0.938595 0.297229 0.637809 0.710531 200 201 202
0.0604572 -0.0325692 -0.940852 0.284196 0.378018 0.881099 203 205 206
0.0605943 -0.0316382 -0.943088 0.427258 0.0619549 0.902004 196 197 198
0.061484 -0.0323766 -0.941922 0.228657 0.333009 0.914779 199 200 202
0.062144 -0.0318125 -0.94319 0.270287 0.537309 0.798902 196 197 198
0.0634024 -0.0323153 -0.941089 -0.237556 0.312889 0.919602 199 200 200
0.0631468 -0.0310593 -0.944893 0.182841 0.687617 0.702675 201 203 203
0.0645175 -0.0292865 -0.947776 0.497569 0.607918 0.618757 197 199 200
0.0671702 -0.0284343 -0.949831 -0.647634 0.188069 0.738377 196 198 202
-0.0692659 -0.111339 -0.798042 0.573481 0.665836 0.477265 108 78 51
-0.0677765 -0.111011 -0.798685 0.345984 0.696363 0.628787 110 80 53
-0.0675767 -0.110074 -0.799892 0.347153 0.844166 0.408496 124 94 65
-0.0662943 -0.110115 -0.799965 0.368493 0.485672 0.792676 126 96 66
-0.0664864 -0.110276 -0.799993 0.345964 0.637226 0.68866 126 97 67
-0.0648499 -0.10867 -0.802427 0.343209 0.595943 0.725989 121 89 62
-0.0633225 -0.108632 -0.80332 0.340026 0.566131 0.750918 129 99 69
-0.0633262 -0.107691 -0.804389 0.337397 0.719698 0.606794 135 107 73
-0.0617228 -0.107515 -0.804946 0.336947 0.77248 0.538277 128 100 73
-0.0616575 -0.107504 -0.804931 0.337499 0.781473 0.52478 127 100 73
-0.0607134 -0.10644 -0.807014 0.381853 0.874252 0.299786 127 97 68
0.011685 -0.0774184 -0.842364 0.987746 0.10744 0.113203 131 131 120
0.0117054 -0.0773922 -0.84236 0.987114 0.112557 0.113741 131 130 120
0.0156449 -0.0709674 -0.859326 0.987488 -0.150453 0.047232 137 139 129
0.0162347 -0.0709751 -0.858191 0.921858 0.339773 0.186369 136 138 129
0.0152165 -0.0697419 -0.864195 0.854669 0.428271 0.293471 137 139 132
0.0151939 -0.069739 -0.864215 0.833133 0.45986 0.307276 137 139 132
0.0158523 -0.0682369 -0.866952 0.830541 -0.539652 0.137757 139 140 131
0.0167206 -0.0681398 -0.867034 0.854648 -0.498855 0.143947 137 138 129
0.0165948 -0.0683042 -0.867591 0.770245 -0.620644 0.146705 137 138 129
0.0173167 -0.0670316 -0.870382 0.875644 0.376429 0.30257 115 115 99
0.0178609 -0.0675386 -0.868497 0.97913 -0.183025 0.0883553 116 116 102
0.0178609 -0.0675386 -0.868497 0.97913 -0.183025 0.0883553 116 116 102
0.0165037 -0.06578 -0.873408 0.754429 0.481295 0.44631 120 121 106
0.0172303 -0.0652706 -0.874461 0.945979 0.107154 0.30601 119 122 106
0.0171629 -0.0655559 -0.874523 0.705951 0.50544 0.49615 121 124 109
0.0170128 -0.0655027 -0.874503 0.672056 0.536197 0.510718 119 122 107
0.017874 -0.0656625 -0.875087 0.60485 0.518421 0.604481 141 144 129
0.0187933 -0.0642105 -0.878498 0.898684 0.285333 0.333094 154 157 141
0.0189295 -0.0632986 -0.880288 0.868562 0.36469 0.335562 150 153 138
0.0196275 -0.0604476 -0.887699 0.817662 0.419886 0.393859 160 159 156
0.0198206 -0.0608071 -0.88701 0.970897 -0.0840192 0.224275 150 149 145
0.0203445 -0.0602729 -0.88746 0.940091 0.214083 0.265324 160 159 155
0.0192786 -0.0596164 -0.890437 0.867294 0.363834 0.339743 163 163 160
0.0191702 -0.0591349 -0.894102 0.438891 0.660037 0.609694 182 182 184
0.0191501 -0.0582233 -0.895119 0.420623 0.704477 0.571654 181 182 182
0.0202594 -0.0581966 -0.895955 0.534405 0.638646 0.553663 200 201 204
0.0209662 -0.0571255 -0.898232 0.4447 0.691856 0.568838 203 205 208
0.0215081 -0.0569858 -0.898001 0.34686 0.711534 0.611071 203 205 208
0.0345766 -0.0486695 -0.912396 0.138028 0.69235 0.708237 209 208 211
0.0352601 -0.0479805 -0.914111 0.167019 0.66785 0.725314 209 211 213
0.0361329 -0.0478428 -0.914735 0.208318 0.722167 0.659605 211 213 215
0.0423724 -0.0440436 -0.920953 0.317403 0.665935 0.675119 178 181 184
0.0425537 -0.0443522 -0.921008 0.531984 0.646259 0.547122 178 183 185
0.0439201 -0.0440492 -0.921202 0.257238 0.679382 0.687218 175 178 181
0.0449549 -0.0439858 -0.921587 0.479203 0.606513 0.634435 173 176 179
0.0448294 -0.0433916 -0.922652 0.384055 0.645555 0.660122 165 169 172
0.0461203 -0.0431045 -0.923679 0.341842 0.647157 0.681419 152 154 158
0.0473401 -0.0415264 -0.925622 0.312947 0.6338 0.707362 206 208 211
0.0500873 -0.0403495 -0.928322 0.27321 0.663391 0.696612 207 210 213
0.0498785 -0.0396241 -0.929113 0.347171 0.631922 0.692926 209 211 214
0.051327 -0.0405233 -0.92706 0.130138 0.0505736 0.990205 208 211 214
0.0514707 -0.0386265 -0.93116 0.197474 0.693586 0.692778 208 211 214
0.0528607 -0.0385594 -0.932281 0.258982 0.655612 0.709296 209 211 213
0.0535388 -0.0373187 -0.933336 0.238222 0.673688 0.699567 179 181 184
0.0549681 -0.0369469 -0.934687 0.377413 0.600937 0.704581 148 149 155
0.0562616 -0.0368047 -0.935004 0.241102 0.669208 0.702873 139 140 146
0.0586255 -0.0350413 -0.93766 0.35783 0.603957 0.712175 162 163 164
0.0648165 -0.0306864 -0.945914 0.336177 0.585787 0.737454 198 201 201
0.0661666 -0.0301584 -0.9461 0.464268 0.294006 0.835473 196 199 200
0.0660871 -0.0302573 -0.946 -0.688355 0.101646 0.718217 199 201 202
0.0665139 -0.0307558 -0.945517 0.442442 0.592975 0.672775 187 190 192
0.0676951 -0.0289492 -0.948647 0.0711453 0.65837 0.749325 193 195 195
0.0685856 -0.0282126 -0.950121 -0.0547087 0.208877 0.97641 190 193 194
0.0685856 -0.0282126 -0.950121 -0.0547087 0.208877 0.97641 190 193 197
0.0710795 -0.0267176 -0.952709 0.144579 0.644755 0.750592 178 183 191
-0.0663439 -0.111822 -0.798353 0.464395 0.685374 0.560892 114 85 59
-0.0663972 -0.111118 -0.799052 0.354103 0.578888 0.734506 109 80 53
-0.0661934 -0.110978 -0.799305 0.342275 0.791423 0.506456 111 82 54
-0.066274 -0.110807 -0.799442 0.345092 0.65297 0.674197 116 88 59
-0.0651019 -0.111111 -0.799609 0.34775 0.577095 0.73894 120 91 65
-0.0650936 -0.111082 -0.79974 0.339996 0.71728 0.608203 122 93 66
-0.0645884 -0.110059 -0.800368 0.346296 0.591697 0.727993 122 92 61
-0.063726 -0.109495 -0.802328 0.339367 0.636793 0.692333 123 92 63
-0.0630289 -0.109723 -0.802277 0.340015 0.575041 0.744122 123 92 63
-0.0617584 -0.108477 -0.803859 0.468673 0.507275 0.7232 132 104 74
-0.0620295 -0.108307 -0.803969 0.466561 0.622708 0.628137 133 106 75
-0.0607925 -0.108351 -0.804799 0.33271 0.576386 0.74638 134 107 73
-0.060865 -0.108269 -0.804612 0.338141 0.499523 0.797583 132 106 72
-0.0594917 -0.108024 -0.805349 0.331088 0.593931 0.73323 122 94 69
-0.060278 -0.107427 -0.805695 0.331421 0.661727 0.672516 91 67 50
-0.0592456 -0.107217 -0.806591 0.330893 0.765063 0.552439 118 91 67
0.01168 -0.0782295 -0.842883 0.945996 0.252432 0.203398 128 119 107
0.0148842 -0.0721276 -0.858826 0.260736 0.760038 0.59528 136 138 131
0.0141424 -0.0700888 -0.864708 0.822067 0.478306 0.308918 138 139 133
0.0146858 -0.0698491 -0.866396 0.892894 0.0877239 0.441639 135 136 128
0.0146978 -0.0698554 -0.866363 0.897866 0.0755294 0.433742 135 136 128
0.0161721 -0.0688918 -0.869178 0.688677 0.490227 0.53423 111 114 102
0.0169946 -0.0680999 -0.869911 0.880976 0.335094 0.334056 115 117 103
0.0169739 -0.0671917 -0.872899 0.852668 0.414737 0.317727 133 136 120
0.0170171 -0.0671709 -0.872718 0.87922 0.370041 0.300071 130 133 118
0.0182665 -0.0665985 -0.873405 0.89632 0.308293 0.318693 146 150 134
0.0192386 -0.0643987 -0.880316 0.945797 0.183081 0.268233 141 143 131
0.0191539 -0.0636314 -0.88202 0.951584 0.157165 0.264171 126 129 118
0.0192564 -0.0636634 -0.881655 0.960927 0.168749 0.219417 129 132 121
0.019369 -0.0629531 -0.883052 0.982426 0.034101 0.183512 97 98 90
0.0197421 -0.0627623 -0.885195 0.972538 -0.054574 0.226255 73 72 67
0.0196637 -0.0629221 -0.884879 0.9731 -0.043334 0.22627 64 63 59
0.0199027 -0.0622408 -0.886341 0.968034 -0.0884822 0.234695 130 129 122
0.0202914 -0.0616573 -0.887222 0.969589 -0.101731 0.222595 158 157 155
0.0192516 -0.0601043 -0.892514 0.810377 0.445929 0.380049 177 177 176
0.0191246 -0.060457 -0.892413 0.878527 0.357622 0.316696 179 180 179
0.0191246 -0.060457 -0.892413 0.878527 0.357622 0.316696 179 180 179
0.0202122 -0.059057 -0.894924 0.421698 0.7057 0.569349 199 201 203
0.0203149 -0.0596455 -0.894464 0.36675 0.693262 0.620389 200 201 204
0.039685 -0.0467038 -0.917943 0.129105 0.184777 0.974263 210 212 215
0.0437463 -0.0453046 -0.920066 0.0966887 -0.0447201 0.994309 199 203 205
0.0464077 -0.0443498 -0.921716 0.49644 0.596264 0.630886 172 175 179
0.0471697 -0.0438399 -0.923467 0.173113 0.714233 0.678161 165 167 171
0.0517758 -0.040336 -0.928101 0.414644 -0.247939 0.875555 209 211 215
0.0537754 -0.0384734 -0.933218 0.409356 0.586798 0.698639 209 210 212
0.055932 -0.0379521 -0.933715 0.304484 0.622984 0.720542 185 186 192
0.0620601 -0.0347753 -0.940057 0.190367 0.680859 0.707242 201 202 203
0.0646567 -0.0318015 -0.945572 0.389248 0.537133 0.748315 194 195 197
0.0649512 -0.0322269 -0.944529 0.423835 0.458535 0.781095 193 195 196
0.0649816 -0.0324146 -0.944459 0.454689 0.417258 0.786863 195 196 197
0.0664205 -0.03112 -0.94648 0.323058 0.674952 0.66338 199 201 203
0.0679513 -0.0302785 -0.947003 0.38769 0.562445 0.73031 198 200 202
0.0693388 -0.0296925 -0.94887 0.273298 0.657964 0.701707 195 199 202
0.0692787 -0.0294271 -0.949352 0.0550798 0.666813 0.743187 196 199 203
-0.0649104 -0.111758 -0.799028 0.339576 0.714918 0.611212 109 80 55
-0.0634117 -0.110875 -0.800419 0.389182 0.740028 0.54854 124 93 66
-0.0620804 -0.110811 -0.801192 0.334514 0.801204 0.496158 125 94 66
-0.0621027 -0.109433 -0.803175 0.343041 0.842706 0.414934 118 87 58
-0.0605679 -0.109215 -0.803801 0.502922 0.428672 0.750539 129 100 70
-0.0593862 -0.109086 -0.804463 0.330383 0.586739 0.739314 134 108 77
-0.0580331 -0.107854 -0.806124 0.351749 0.715092 0.604083 91 68 51
-0.00534075 -0.081677 -0.847159 0.541875 0.687602 0.483297 161 165 153
0.0098702 -0.079593 -0.841765 0.716953 -0.687756 0.113889 145 149 142
0.0115849 -0.0790335 -0.842119 0.635407 -0.729045 0.254463 130 127 117
0.0135839 -0.0718364 -0.863592 0.910455 0.0725831 0.407191 133 135 126
0.0148063 -0.0707113 -0.866576 0.663732 0.568262 0.486352 119 121 109
0.0147801 -0.0707095 -0.866597 0.642559 0.586114 0.493547 119 121 109
0.0159128 -0.0695433 -0.868611 0.75679 0.470113 0.454161 107 109 96
0.0170346 -0.0690505 -0.870363 0.876766 0.279319 0.391487 135 138 121
0.0174818 -0.0682396 -0.870503 0.946399 0.210099 0.245331 129 132 117
0.0178658 -0.0686976 -0.870916 0.901663 0.301536 0.309967 150 153 137
0.0176104 -0.0679275 -0.872943 0.56547 0.495585 0.659272 151 155 139
0.0183651 -0.0670168 -0.875015 0.859421 0.398468 0.320341 154 156 142
0.0191079 -0.0651045 -0.879135 0.913228 0.2291 0.336938 145 147 135
0.0190598 -0.0651693 -0.87881 0.90261 0.271786 0.333808 147 149 136
0.019517 -0.0647033 -0.881604 0.956572 0.13286 0.259459 89 90 82
0.0195751 -0.0649747 -0.881648 0.959353 0.0906028 0.26727 77 78 71
0.0201407 -0.0644089 -0.882049 0.961801 0.0847269 0.260309 62 62 56
0.0195682 -0.0634638 -0.883806 0.923579 0.0935943 0.37181 62 62 57
0.0201019 -0.0629115 -0.887459 0.971442 -0.0638673 0.228519 162 162 160
0.0192061 -0.0614828 -0.891952 0.897242 0.325154 0.298716 189 190 191
0.0192061 -0.0614828 -0.891952 0.897242 0.325154 0.298716 189 190 191
0.0192061 -0.0614828 -0.891952 0.897242 0.325154 0.298716 189 190 191
0.0200204 -0.0605102 -0.893672 0.685854 0.521159 0.507935 197 200 201
0.0202948 -0.0609205 -0.893476 0.665111 0.539421 0.516383 198 201 202
0.0215383 -0.0595602 -0.895032 0.360151 0.713484 0.601026 202 204 207
0.0332639 -0.0535472 -0.906941 -0.280882 0.226919 0.93253 127 99 68
0.0335356 -0.0524863 -0.90788 0.457573 0.657296 0.598823 126 104 79
0.0445407 -0.0464487 -0.918622 0.303017 0.669294 0.6784 194 196 200
0.0472914 -0.0444376 -0.922289 0.316205 0.665625 0.675987 173 175 179
0.048522 -0.0435229 -0.924465 0.294505 0.668703 0.682717 153 156 159
0.0498676 -0.0430298 -0.925626 0.320806 0.65005 0.688853 174 177 180
0.0548118 -0.039798 -0.931443 0.349949 0.624478 0.698257 210 211 213
0.0561585 -0.0393941 -0.932763 0.22296 0.666666 0.711228 209 210 214
0.0665357 -0.0323378 -0.944925 0.467063 0.516007 0.718045 193 194 196
0.0665149 -0.0325346 -0.944836 0.387931 0.481525 0.785903 192 193 195
0.0681646 -0.0323351 -0.945886 0.435146 0.63952 0.633768 195 197 200
0.0693884 -0.0310111 -0.946898 0.654436 0.259383 0.710236 189 191 194
0.0710728 -0.0299965 -0.949005 0.330358 0.606447 0.723247 192 197 199
0.0712463 -0.0295803 -0.950264 0.0762612 0.67736 0.731688 192 196 202
-0.0637187 -0.11188 -0.799396 0.34377 0.596174 0.725533 107 77 53
-0.0623727 -0.111691 -0.800169 0.502635 0.786076 0.359782 120 90 65
-0.0626043 -0.111607 -0.800179 0.512939 0.777616 0.363604 120 90 65
-0.0619854 -0.111841 -0.800265 0.347576 0.518766 0.781072 121 92 66
-0.0615838 -0.110497 -0.801968 0.335796 0.613852 0.714441 125 95 65
-0.0610195 -0.110243 -0.80282 0.332144 0.800612 0.498699 119 88 60
-0.0606536 -0.110114 -0.803107 0.332425 0.801202 0.497563 117 86 58
-0.0581246 -0.108778 -0.805058 0.326339 0.646806 0.689307 135 103 70
-0.0394286 -0.0981392 -0.824659 0.420143 0.845913 0.328499 98 78 66
-0.0204042 -0.0859328 -0.847994 0.261223 0.833619 0.486665 189 193 203
-0.00530711 -0.0821536 -0.847505 0.478514 0.741135 0.470897 162 166 154
0.00933016 -0.0800967 -0.842994 0.544837 -0.814607 0.198915 140 141 136
0.0117897 -0.0790751 -0.843271 0.933175 0.30063 0.196995 160 155 141
0.0118152 -0.0789881 -0.845818 0.916513 -0.358348 0.177737 131 131 122
0.0121971 -0.0781712 -0.845785 0.898385 -0.411667 0.153088 130 129 120
0.0112458 -0.0748231 -0.858077 0.61904 0.676527 0.398874 136 137 130
0.0114163 -0.0745638 -0.859254 0.790297 0.557779 0.253602 137 138 130
0.0104682 -0.0742605 -0.860211 0.706145 0.554425 0.440422 137 138 130
0.0138125 -0.0730246 -0.863322 0.957404 0.0407999 0.285855 106 108 98
0.0153219 -0.0710736 -0.867052 0.947402 0.0906233 0.306949 122 125 110
0.0180321 -0.0688799 -0.871891 0.901798 0.302746 0.308391 155 159 144
0.0182799 -0.0682353 -0.873731 0.796993 0.423617 0.430524 156 159 145
0.0186279 -0.0680117 -0.873783 0.578943 0.675694 0.456358 158 162 146
0.0183835 -0.0675236 -0.874645 0.859855 0.398622 0.318982 155 159 144
0.0190206 -0.0673098 -0.875777 0.971329 0.0654439 0.228553 152 155 141
0.0189416 -0.0664768 -0.87745 0.880112 0.248648 0.404447 149 150 138
0.0189583 -0.066486 -0.877398 0.883621 0.240054 0.401979 149 151 138
0.0191479 -0.0669183 -0.877801 0.90775 0.254617 0.333406 141 142 132
0.0192201 -0.0668293 -0.877998 0.957945 0.140684 0.2501 136 137 127
0.0192677 -0.0662128 -0.879053 0.972606 0.0358736 0.229675 130 131 121
0.0193263 -0.0661149 -0.879301 0.910546 0.240497 0.336254 127 128 118
0.0193344 -0.0653888 -0.880596 0.92208 0.234933 0.307531 112 113 104
0.0198183 -0.0636252 -0.885934 0.965488 -0.152912 0.210833 111 111 104
0.019244 -0.0623205 -0.89061 0.893137 0.329966 0.305662 184 184 184
0.0200484 -0.0617075 -0.89254 0.725703 0.544103 0.421079 197 199 201
0.0200484 -0.0617075 -0.89254 0.725703 0.544103 0.421079 197 199 201
0.0208596 -0.0612091 -0.893121 0.558246 0.615295 0.556573 199 201 204
0.0222698 -0.0615062 -0.892681 0.434453 0.707271 0.55769 201 203 206
0.0419408 -0.0515047 -0.907622 0.768213 -0.598835 0.226378 212 213 215
0.0420911 -0.0476307 -0.919266 0.644611 -0.723882 0.245908 209 212 214
0.0449302 -0.0476855 -0.917542 0.517655 0.0726267 0.852502 211 213 215
0.0458984 -0.0476182 -0.918172 0.381541 0.178707 0.906912 209 211 213
0.0459489 -0.0476284 -0.918126 0.434597 0.211197 0.875512 209 211 213
0.0493714 -0.0453721 -0.922595 0.318338 0.666164 0.674453 175 178 181
0.0496991 -0.044404 -0.924213 0.210821 0.703983 0.678206 168 171 174
0.0567692 -0.0407076 -0.931517 0.253631 0.67352 0.694292 207 209 213
0.0604101 -0.0377232 -0.936415 0.472077 0.369694 0.800293 151 152 157
0.0629925 -0.0361918 -0.939389 0.402028 0.615543 0.67785 141 143 147
0.064012 -0.0360921 -0.940036 0.432073 0.576695 0.693351 134 136 138
0.0677877 -0.0336619 -0.944745 0.183957 0.703088 0.686896 200 202 205
0.0691104 -0.0334139 -0.945148 -0.188094 0.0962294 0.977426 193 195 197
0.0711583 -0.0317049 -0.947753 0.120367 0.665605 0.736534 189 193 195
0.0724916 -0.03115 -0.946875 0.707017 -0.398699 0.584095 196 199 205
-0.0624553 -0.112674 -0.799229 0.334372 0.816279 0.471046 110 81 56
-0.0612747 -0.112397 -0.800171 0.331907 0.846547 0.416169 118 90 65
-0.0616497 -0.111707 -0.801246 0.34748 0.910031 0.226056 124 96 69
-0.060038 -0.111061 -0.802594 0.38262 0.747039 0.54363 122 94 65
-0.0584674 -0.110918 -0.803129 0.32524 0.685698 0.651181 117 89 60
-0.0587102 -0.109926 -0.804189 0.32626 0.64697 0.689191 134 108 78
-0.0571333 -0.109633 -0.804777 0.323461 0.660208 0.677863 131 100 71
-0.056851 -0.109688 -0.804793 0.3226 0.715871 0.61924 130 100 71
-0.00432457 -0.0831062 -0.847945 0.685911 0.673629 0.275227 162 166 157
-0.00430707 -0.0828989 -0.848227 0.445034 0.800261 0.401904 162 166 156
0.00972576 -0.080712 -0.843143 0.281414 -0.630619 0.723274 142 143 138
0.00941401 -0.0807724 -0.843108 0.320366 -0.648585 0.690437 138 139 133
0.011654 -0.0798976 -0.844071 0.999949 0.00379977 0.00935432 129 129 121
0.0117857 -0.0798864 -0.843747 0.964325 0.225553 0.138577 129 129 120
0.011355 -0.0802749 -0.844188 0.9033 -0.427952 -0.0301139 133 134 127
0.0112883 -0.0800057 -0.845182 0.957117 -0.287979 -0.0315484 131 133 125
0.0116893 -0.0798002 -0.845731 0.294989 -0.818379 0.493191 131 133 126
0.00922102 -0.0766713 -0.855727 0.738179 0.620817 0.263967 135 137 129
0.0106134 -0.0766344 -0.856231 0.853519 0.460483 0.243847 134 137 127
0.0124846 -0.0746366 -0.859911 0.965264 -0.0938541 0.243839 130 131 123
0.0165852 -0.0714416 -0.868898 0.851646 0.33834 0.400282 151 154 141
0.0175305 -0.0704783 -0.870223 0.528853 0.709686 0.465468 157 160 146
0.0176095 -0.0704968 -0.870097 0.529459 0.709397 0.46522 157 160 146
0.0176207 -0.0708033 -0.869473 0.683095 0.623956 0.379552 156 159 144
0.0184112 -0.0693131 -0.872919 0.961327 0.142841 0.235473 155 158 145
0.0187417 -0.0691983 -0.873897 0.959992 0.145514 0.23925 148 151 138
0.0193216 -0.0686681 -0.874216 0.924867 0.238451 0.296247 146 149 136
0.0197516 -0.0680902 -0.874725 0.969694 0.149267 0.193425 145 148 135
0.019215 -0.0675386 -0.877547 0.919188 0.135157 0.3699 130 131 123
0.0193386 -0.0668368 -0.878755 0.903876 0.266556 0.334599 118 119 111
0.0194616 -0.0672326 -0.879602 0.981904 0.0637067 0.178339 73 73 69
0.0195891 -0.0665417 -0.880691 0.984927 0.0135286 0.172443 63 63 58
0.0195387 -0.066181 -0.881922 0.920539 0.179867 0.346779 60 60 55
0.0204023 -0.0652366 -0.88398 0.917149 0.174088 0.358513 114 114 110
0.0198875 -0.0641149 -0.887518 0.971294 -0.0090071 0.237712 152 151 149
0.0201564 -0.0638073 -0.889921 0.6469 0.617264 0.447779 193 193 197
0.0201785 -0.062929 -0.891496 0.603319 0.642171 0.472887 197 198 201
0.0204092 -0.0636234 -0.890571 0.738508 0.539991 0.403752 195 197 202
0.0220632 -0.0634527 -0.889733 0.762858 0.505324 0.403354 199 200 203
0.0217412 -0.0623372 -0.891832 0.565045 0.658496 0.497098 200 201 205
0.0215628 -0.0622515 -0.892045 0.66348 0.596262 0.451958 200 201 205
0.0213195 -0.0630015 -0.891787 0.54237 0.664035 0.514677 199 200 204
0.0351818 -0.0548358 -0.905727 -0.0246627 0.603754 0.796789 124 97 65
0.0498823 -0.0457907 -0.92173 0.174498 0.689412 0.703037 180 182 186
0.0509214 -0.0453158 -0.923231 0.331837 0.661204 0.672825 174 177 180
0.0521892 -0.0452239 -0.923511 0.284313 0.67227 0.683535 172 173 177
0.0609469 -0.0388691 -0.936238 0.520632 0.543241 0.658659 199 201 203
0.0688789 -0.034973 -0.942546 0.23594 0.554989 0.797697 205 207 212
0.0691535 -0.0346007 -0.94454 0.296402 0.529641 0.794749 203 206 209
0.0697891 -0.033261 -0.945788 -0.371018 0.0479708 0.927386 190 192 197
0.071622 -0.0326649 -0.946642 0.334417 0.0695711 0.939854 195 199 204
0.0732544 -0.0316335 -0.94903 0.381341 0.411482 0.827805 184 189 194
-0.0614708 -0.113129 -0.798813 0.337652 0.900297 0.274694 111 83 58
-0.0608511 -0.112629 -0.800209 0.331033 0.683883 0.65017 118 90 65
-0.0594683 -0.112386 -0.800891 0.327192 0.725424 0.605562 120 93 66
-0.0594045 -0.112395 -0.800901 0.326724 0.73877 0.589466 120 93 66
-0.0572539 -0.110669 -0.803869 0.32291 0.721242 0.612812 124 94 66
-0.0559846 -0.110249 -0.804869 0.32364 0.817882 0.475738 128 98 68
-0.0410946 -0.100966 -0.82238 0.29053 0.879586 0.376725 98 73 55
-0.00464261 -0.0842167 -0.846509 -0.242421 0.223016 0.944191 164 167 159
-0.00312068 -0.0836547 -0.846986 0.592328 0.742811 0.312058 162 167 158
-0.00055561 -0.0823796 -0.847897 -0.181017 0.324264 0.928486 145 148 141
0.00904219 -0.0812388 -0.843902 0.61958 -0.617451 0.484639 140 141 135
0.0108317 -0.0807457 -0.84516 0.804232 -0.543159 0.241224 133 135 128
0.0104606 -0.0798307 -0.848753 0.0921708 -0.831261 0.548187 134 135 130
0.00901612 -0.0789739 -0.853118 0.717117 0.301697 0.628269 134 135 126
0.00989858 -0.0785675 -0.853559 0.890766 0.132482 0.434724 132 133 126
0.00999146 -0.0781421 -0.854517 0.886885 0.332674 0.320565 131 132 125
0.0108835 -0.0778305 -0.854339 0.889658 -0.44361 0.108256 132 133 125
0.0104033 -0.0777001 -0.854708 0.908075 0.314577 0.276482 132 134 125
0.0106978 -0.0772225 -0.855118 0.91381 0.287047 0.287326 133 135 126
0.0159088 -0.072938 -0.8667 0.643209 0.602856 0.472067 151 154 138
0.0159364 -0.0728591 -0.866778 0.656962 0.613062 0.438811 151 154 138
0.0161737 -0.072374 -0.867536 0.725457 0.584718 0.363065 150 153 139
0.0167334 -0.0719731 -0.867759 0.825708 0.490359 0.278845 153 156 141
0.0170136 -0.0716163 -0.867987 0.823067 0.492263 0.283262 154 157 141
0.01816 -0.0710828 -0.86965 0.97807 0.0888263 0.188386 157 160 146
0.0188472 -0.0713879 -0.869251 0.884524 0.324841 0.334806 154 156 144
0.0185249 -0.070322 -0.873186 0.975374 0.0489216 0.215062 143 144 134
0.0187097 -0.0696707 -0.875548 0.95622 0.0406678 0.289809 127 127 119
0.0190601 -0.0691107 -0.876345 0.984685 -0.115813 0.130319 119 121 113
0.0194759 -0.0686868 -0.877236 0.924119 -0.042849 0.379695 91 93 86
0.0195147 -0.0679542 -0.879045 0.949347 0.186913 0.252595 63 64 60
0.0195231 -0.0672282 -0.880313 0.966623 0.0932111 0.238646 60 60 56
0.0194764 -0.0674369 -0.881617 0.937465 0.15222 0.313031 59 57 51
0.0194764 -0.0674369 -0.881617 0.937465 0.15222 0.313031 59 57 51
