ply
format ascii 1.0
element face 0
property list uchar int vertex_indices
element vertex 466
property float x
property float y
property float z
property uchar diffuse_red
property uchar diffuse_green
property uchar diffuse_blue
end_header
-2.223201e-002 1.999641e-001 -1.018873e+000 39 43 46
-1.539608e-002 1.807325e-001 -1.006794e+000 33 33 33
-2.634178e-002 1.804659e-001 -1.003776e+000 35 37 36
-3.449173e-002 1.811574e-001 -1.005874e+000 77 78 82
-3.449173e-002 1.811574e-001 -1.005874e+000 77 78 82
-1.711695e-002 1.780038e-001 -1.012858e+000 19 20 23
1.528504e-001 1.021553e-001 -1.084714e+000 68 70 57
1.367212e-001 1.094229e-001 -1.128125e+000 156 159 150
-5.854209e-002 7.426076e-002 -9.878402e-001 74 73 53
8.058179e-002 -4.635138e-003 -9.508425e-001 184 185 139
4.638411e-002 -3.658685e-002 -9.250713e-001 103 104 109
3.230789e-002 -3.754153e-002 -9.271347e-001 208 209 213
8.141823e-002 -4.654616e-002 -9.410407e-001 212 213 217
-2.302126e-002 1.800342e-001 -1.006041e+000 39 41 40
-2.110453e-002 1.769476e-001 -1.005528e+000 78 79 81
-2.148434e-002 1.778786e-001 -1.006398e+000 78 79 81
-3.249271e-002 1.792749e-001 -1.005001e+000 23 24 28
-2.098489e-002 1.761326e-001 -1.014290e+000 83 85 84
-3.421880e-002 1.824843e-001 -1.023273e+000 35 37 34
1.397784e-001 1.514923e-001 -1.101611e+000 176 178 164
1.709383e-001 1.217547e-001 -1.112869e+000 69 81 65
1.160259e-001 1.333822e-001 -1.137362e+000 72 66 50
1.689301e-001 1.046321e-001 -1.133402e+000 81 76 60
7.148294e-002 8.942505e-002 -1.065048e+000 177 179 171
9.842691e-002 9.181542e-002 -1.083764e+000 130 124 105
-5.893784e-002 7.293712e-002 -9.980675e-001 119 119 107
7.275524e-002 3.466806e-003 -9.494143e-001 149 145 136
8.565086e-002 -7.581060e-003 -9.502784e-001 197 179 84
1.198861e-001 -3.084661e-002 -9.738720e-001 149 153 156
8.253462e-002 -4.753127e-002 -9.388000e-001 217 220 224
-3.173926e-002 1.831718e-001 -1.001625e+000 86 88 85
-3.193384e-002 1.817949e-001 -1.003550e+000 25 27 26
-1.931668e-002 1.783947e-001 -1.005956e+000 23 25 25
-1.717374e-002 1.768049e-001 -1.006689e+000 78 82 81
-1.958925e-002 1.764448e-001 -1.007642e+000 16 19 21
-1.957460e-002 1.764769e-001 -1.007544e+000 16 19 21
-1.970100e-002 1.774585e-001 -1.013003e+000 79 80 82
1.679731e-001 1.291989e-001 -1.111692e+000 102 99 85
7.690999e-002 1.719566e-001 -1.152869e+000 19 20 16
1.406120e-001 9.935422e-002 -1.083665e+000 138 141 122
-1.883939e-002 8.464759e-002 -1.009294e+000 24 24 24
9.065439e-002 9.683764e-002 -1.086776e+000 100 101 85
2.431964e-002 8.704210e-002 -1.040721e+000 66 56 50
4.613036e-002 8.389062e-002 -1.049967e+000 84 75 63
2.250955e-002 8.194680e-002 -1.039889e+000 93 80 72
8.540330e-002 -1.312034e-002 -9.517353e-001 194 194 106
6.411723e-002 -9.758594e-003 -9.604664e-001 161 151 68
7.680858e-002 -1.821270e-002 -9.589087e-001 145 150 89
-3.357259e-002 1.787362e-001 -1.007309e+000 78 79 81
-2.076209e-002 1.760718e-001 -1.011748e+000 78 80 80
-1.921984e-002 1.714632e-001 -1.006865e+000 78 80 80
1.618706e-001 3.303928e-001 -1.421778e+000 57 60 43
1.618706e-001 3.303928e-001 -1.421778e+000 57 60 43
1.699936e-001 1.321831e-001 -1.122187e+000 222 224 217
1.597867e-001 3.314405e-001 -1.433082e+000 168 170 155
1.019401e-001 2.715900e-001 -1.341840e+000 80 65 51
-4.500917e-003 1.649041e-001 -1.132737e+000 89 88 84
1.361249e-001 9.809744e-002 -1.089522e+000 157 163 136
8.812884e-002 9.221680e-002 -1.075555e+000 91 91 81
1.459318e-001 1.130285e-001 -1.145486e+000 134 144 134
8.842104e-002 8.402429e-002 -1.067593e+000 29 30 33
-4.214509e-002 6.429562e-002 -9.790996e-001 125 121 109
8.016412e-002 -4.140878e-003 -9.522426e-001 211 212 136
8.656247e-002 -1.891068e-002 -9.461267e-001 80 104 152
6.612005e-002 -1.241738e-002 -9.600486e-001 182 164 89
6.056749e-002 -1.328358e-002 -9.637884e-001 192 192 190
1.434406e-001 3.426573e-001 -1.455047e+000 20 22 13
1.604843e-001 1.097513e-001 -1.089975e+000 61 61 59
1.523432e-001 1.038864e-001 -1.085461e+000 66 67 58
1.270369e-001 1.316566e-001 -1.139902e+000 135 130 110
1.432597e-001 1.077468e-001 -1.117203e+000 63 65 52
1.533737e-001 1.088380e-001 -1.126182e+000 81 81 80
1.533737e-001 1.088380e-001 -1.126182e+000 81 81 80
1.177081e-001 1.203849e-001 -1.135831e+000 96 82 58
-7.115937e-002 7.753251e-002 -9.736700e-001 130 130 122
6.739214e-002 8.597813e-002 -1.071699e+000 89 81 69
1.450876e-001 7.621734e-002 -1.107844e+000 82 66 50
8.096265e-002 -3.001483e-003 -9.498938e-001 31 27 37
8.386126e-002 -6.381504e-003 -9.511709e-001 207 206 118
8.033746e-002 -1.015796e-002 -9.504107e-001 223 209 106
8.617498e-002 -1.583238e-002 -9.486910e-001 62 87 124
7.916555e-002 -1.299410e-002 -9.540970e-001 211 196 102
7.568925e-002 -1.755262e-002 -9.563612e-001 174 165 72
7.568997e-002 -1.753079e-002 -9.565091e-001 174 165 72
4.212035e-002 -2.055233e-002 -9.467779e-001 216 217 221
1.112024e-001 -2.877362e-002 -9.698782e-001 201 204 210
5.802029e-002 -3.413148e-002 -9.422581e-001 151 152 154
5.814234e-002 -3.470585e-002 -9.402960e-001 151 152 154
7.145068e-002 -3.652060e-002 -9.464699e-001 128 128 130
7.145068e-002 -3.652060e-002 -9.464699e-001 128 128 130
7.601581e-002 -3.738983e-002 -9.480613e-001 120 121 125
7.601046e-002 -3.753138e-002 -9.469974e-001 120 121 125
8.988072e-002 -6.900978e-002 -9.202674e-001 115 94 65
1.103257e-001 -7.621297e-002 -9.250369e-001 131 115 82
-2.828241e-002 1.841891e-001 -1.002887e+000 84 86 81
-3.205168e-002 1.821969e-001 -1.014405e+000 82 83 85
-2.192091e-002 1.751977e-001 -1.010979e+000 79 81 80
2.759778e-002 1.287966e-001 -1.089873e+000 112 111 107
1.293038e-001 1.070367e-001 -1.126005e+000 118 112 85
2.946161e-002 -2.892313e-002 -9.335176e-001 94 95 99
6.200960e-002 -3.498497e-002 -9.429477e-001 124 126 125
6.763836e-002 -4.103938e-002 -9.270205e-001 184 184 186
6.763836e-002 -4.103938e-002 -9.270205e-001 184 184 186
4.040055e-002 -4.161493e-002 -9.251371e-001 142 143 145
1.062561e-001 -9.151535e-002 -9.053458e-001 93 76 56
7.184321e-002 1.025661e-001 -1.069210e+000 80 70 58
1.356195e-001 1.158682e-001 -1.135028e+000 171 179 170
7.272194e-002 1.720892e-003 -9.540887e-001 240 230 145
6.392366e-002 -1.107506e-002 -9.653501e-001 48 47 46
8.080889e-002 -1.995572e-002 -9.644384e-001 18 33 54
3.316590e-002 -3.524120e-002 -9.280412e-001 203 204 208
3.316590e-002 -3.524120e-002 -9.280412e-001 203 204 208
1.020883e-001 -4.844200e-002 -9.482621e-001 208 212 215
1.509200e-001 1.136784e-001 -1.094078e+000 169 171 150
1.529796e-001 1.051203e-001 -1.105926e+000 164 169 147
6.076107e-002 1.019439e-001 -1.070698e+000 16 17 15
1.553859e-001 9.350616e-002 -1.114114e+000 188 195 187
8.170383e-002 -1.597892e-002 -9.565668e-001 201 179 93
-1.803899e-002 1.749948e-001 -1.005577e+000 73 79 77
1.468363e-001 1.028875e-001 -1.127190e+000 165 175 167
-3.237567e-002 1.294509e-001 -1.049513e+000 66 68 65
8.358065e-002 -3.406719e-002 -9.565949e-001 207 210 215
-3.117069e-002 1.806830e-001 -1.004697e+000 70 71 73
8.986153e-002 8.661223e-002 -1.076226e+000 100 98 90
3.096420e-002 3.935620e-003 -9.657103e-001 171 171 172
-9.384674e-002 -3.115102e-002 -8.729497e-001 62 48 38
-3.360763e-002 1.777496e-001 -1.005424e+000 77 78 80
5.862748e-002 1.027736e-001 -1.077546e+000 49 44 40
1.818972e-002 1.150880e-002 -9.678568e-001 209 210 214
5.071539e-002 4.434560e-003 -9.749344e-001 223 191 166
4.731551e-002 5.432738e-003 -9.753073e-001 193 163 139
-3.174289e-002 1.831636e-001 -1.001616e+000 86 88 85
-2.352482e-002 1.778924e-001 -1.008032e+000 11 12 16
-6.053066e-003 8.983118e-002 -1.027072e+000 68 61 58
4.124639e-002 4.620412e-002 -1.015214e+000 218 191 171
4.040360e-002 8.219645e-003 -9.741800e-001 203 177 162
4.182528e-002 8.465040e-003 -9.769292e-001 222 194 180
2.181451e-002 -3.552161e-002 -9.229237e-001 198 199 203
-9.288460e-002 -3.000595e-002 -8.722395e-001 32 22 16
6.568937e-003 -9.000360e-002 -8.404504e-001 126 127 121
1.792694e-003 -9.690451e-002 -8.397760e-001 168 170 167
2.003037e-002 7.356596e-002 -1.032488e+000 116 100 84
5.601793e-002 3.807878e-002 -1.014227e+000 181 182 177
3.974679e-002 2.573617e-002 -9.923298e-001 199 178 161
8.503098e-002 -4.655033e-003 -9.500941e-001 25 42 35
4.178272e-002 1.473802e-002 -9.834603e-001 218 194 182
4.380393e-002 1.019009e-002 -9.787521e-001 203 176 160
2.118230e-002 3.913524e-003 -9.606992e-001 217 216 211
5.381913e-002 -8.357563e-003 -9.661650e-001 178 180 178
-8.612408e-002 -2.180936e-002 -8.866187e-001 68 56 41
1.643552e-002 -4.370553e-002 -9.124727e-001 108 93 78
1.643552e-002 -4.370553e-002 -9.124727e-001 108 93 78
-3.214439e-002 -1.343565e-001 -8.011453e-001 109 89 65
-4.165609e-002 1.263734e-001 -1.037620e+000 45 46 46
1.369736e-002 -7.438586e-002 -8.381451e-001 135 138 131
9.194300e-002 -7.096287e-002 -9.169746e-001 119 95 64
-3.633986e-002 -1.227824e-001 -8.076483e-001 130 105 74
1.165550e-001 1.245185e-001 -1.132986e+000 7 4 2
1.165550e-001 1.245185e-001 -1.132986e+000 7 4 2
-8.535989e-003 9.977416e-002 -1.030749e+000 198 202 195
5.294500e-002 4.363108e-002 -1.019686e+000 212 212 214
1.903726e-002 1.462788e-002 -9.692831e-001 206 207 211
1.030960e-001 -9.175441e-003 -9.608905e-001 85 108 138
1.645699e-002 -4.331216e-002 -9.102255e-001 123 100 78
-3.512929e-002 -6.156584e-002 -8.528813e-001 40 41 37
1.000116e-001 -1.016978e-001 -8.923998e-001 105 88 64
-3.274623e-002 -1.238285e-001 -8.078172e-001 124 98 71
-1.956657e-002 -1.359250e-001 -7.984278e-001 120 90 66
-5.120434e-002 7.597261e-002 -9.915722e-001 150 152 148
3.370544e-002 -4.206855e-003 -9.570043e-001 206 201 199
6.676078e-002 -1.044054e-002 -9.601138e-001 192 176 79
-3.389804e-002 -6.499275e-002 -8.512111e-001 151 155 141
-3.684717e-002 -6.756722e-002 -8.483590e-001 149 155 141
1.651324e-002 -7.531846e-002 -8.535059e-001 142 143 138
-3.183365e-002 -7.647964e-002 -8.437596e-001 159 162 153
-2.921180e-002 -1.324628e-001 -7.969035e-001 120 91 67
-2.015266e-002 -1.381273e-001 -8.020873e-001 119 93 66
-1.000721e-002 1.523553e-001 -1.033427e+000 70 72 67
-7.011585e-003 1.429106e-001 -1.059032e+000 79 81 78
4.942487e-002 -1.556588e-003 -9.673014e-001 192 170 155
8.195513e-003 -8.751422e-002 -8.481853e-001 50 51 43
-3.854313e-002 -1.293397e-001 -8.027419e-001 95 71 47
-3.546384e-002 -1.322506e-001 -7.974758e-001 101 74 53
-2.488245e-002 -1.347161e-001 -8.023608e-001 106 85 58
-1.299626e-002 1.340495e-001 -1.047264e+000 62 64 59
7.528253e-002 -2.530785e-003 -9.505258e-001 230 219 148
4.492705e-003 -9.700250e-002 -8.388128e-001 203 206 199
3.553680e-003 -1.022930e-001 -8.425415e-001 42 43 45
9.385986e-002 -1.406992e-002 -9.623485e-001 67 95 134
-3.863429e-002 -5.449026e-002 -8.566548e-001 101 105 90
3.438960e-002 -8.227445e-002 -8.947293e-001 213 214 218
-3.525845e-002 1.790840e-001 -1.004340e+000 37 37 36
7.207098e-002 1.105082e-001 -1.086051e+000 57 49 44
7.695961e-002 1.064078e-001 -1.085200e+000 76 72 68
-6.985197e-002 7.088241e-002 -9.926226e-001 148 145 136
-3.333262e-002 -5.962261e-002 -8.542521e-001 69 71 57
-2.788075e-002 1.807050e-001 -1.003018e+000 91 92 87
-2.430139e-002 1.807119e-001 -1.004471e+000 88 89 84
-3.221790e-002 1.822567e-001 -1.004091e+000 29 29 27
-3.322962e-002 1.811317e-001 -1.006857e+000 32 32 30
5.747575e-002 1.239283e-001 -1.097959e+000 42 41 37
-1.962475e-002 8.940754e-002 -1.018573e+000 28 28 28
8.475951e-002 9.890676e-002 -1.085307e+000 62 62 54
2.805198e-002 8.963639e-002 -1.051452e+000 28 25 20
8.995011e-002 8.738191e-002 -1.077907e+000 114 114 105
7.810191e-002 6.072724e-002 -1.035178e+000 236 230 218
7.660871e-002 6.257829e-002 -1.040863e+000 61 58 43
6.267894e-002 -1.309475e-002 -9.670326e-001 168 168 166
1.814972e-002 -5.954063e-002 -8.775715e-001 163 162 156
2.558550e-002 -5.027160e-002 -9.135019e-001 85 75 65
-2.699418e-002 1.776749e-001 -1.005750e+000 32 31 38
-5.049462e-002 9.682304e-002 -9.482114e-001 34 33 31
-5.707803e-002 7.808051e-002 -9.833090e-001 176 173 164
-4.483506e-002 6.821907e-002 -9.847938e-001 127 127 117
6.727574e-002 8.756613e-002 -1.071634e+000 86 78 70
3.999163e-002 -5.884104e-002 -9.072539e-001 126 101 75
4.257322e-002 -5.930445e-002 -9.111935e-001 123 95 73
-1.751601e-002 1.088457e-001 -1.048708e+000 50 50 38
-7.933405e-003 1.058588e-001 -1.058466e+000 84 71 62
9.279218e-002 9.703032e-002 -1.084891e+000 25 17 11
7.354878e-002 6.641100e-002 -1.046503e+000 41 36 32
5.840554e-002 -2.592452e-004 -9.608004e-001 56 51 48
7.636040e-002 -1.513891e-002 -9.670855e-001 167 163 76
1.050469e-001 -1.034668e-002 -9.900623e-001 196 197 197
1.383330e-002 -8.012101e-002 -8.383541e-001 152 149 130
6.464322e-003 -9.789485e-002 -8.369865e-001 169 172 163
-7.318733e-002 7.898783e-002 -9.690935e-001 161 151 144
-7.318733e-002 7.898783e-002 -9.690935e-001 161 151 144
5.933848e-002 9.040634e-002 -1.042927e+000 106 105 101
7.405558e-002 7.152711e-002 -1.047513e+000 63 65 54
9.299338e-002 7.497633e-002 -1.068042e+000 115 104 91
9.889117e-002 -1.505407e-002 -9.608120e-001 83 115 153
8.032476e-002 -2.262878e-002 -9.639403e-001 174 178 190
1.505594e-002 -3.626619e-002 -9.209180e-001 108 90 69
2.142243e-003 -9.537818e-002 -8.426332e-001 166 170 156
9.593423e-002 9.093526e-002 -1.085875e+000 195 195 183
9.593423e-002 9.093526e-002 -1.085875e+000 195 195 183
7.222330e-002 -1.847508e-002 -9.647146e-001 194 187 176
5.430742e-002 -3.300339e-002 -9.431825e-001 94 94 99
6.995446e-002 -3.340253e-002 -9.478229e-001 208 208 208
1.081684e-001 -2.821163e-002 -9.703450e-001 207 211 211
6.189007e-002 -3.482818e-002 -9.435165e-001 145 144 149
3.684891e-002 -4.122292e-002 -9.236614e-001 150 152 151
5.799404e-002 -6.201303e-002 -9.092639e-001 132 103 73
-2.659429e-002 1.773619e-001 -1.003058e+000 41 40 45
-2.659429e-002 1.773619e-001 -1.003058e+000 41 40 45
-6.463958e-002 7.181109e-002 -9.734136e-001 155 153 141
1.081162e-001 1.315171e-001 -1.136372e+000 67 57 46
1.081162e-001 1.315171e-001 -1.136372e+000 67 57 46
9.327610e-002 9.579736e-002 -1.085113e+000 32 22 11
7.743624e-002 -1.079371e-002 -9.531137e-001 76 102 153
7.751509e-002 -1.105929e-002 -9.520625e-001 76 102 153
9.628480e-002 -1.477822e-002 -9.548804e-001 95 120 160
1.098238e-001 -1.940405e-002 -9.816266e-001 206 207 209
1.098238e-001 -1.940405e-002 -9.816266e-001 206 207 209
1.959069e-002 -5.766625e-002 -8.981201e-001 174 174 172
1.643944e-002 -7.125875e-002 -8.645861e-001 137 139 126
1.005247e-003 -9.278793e-002 -8.359580e-001 160 163 154
6.872472e-002 5.116842e-003 -9.591661e-001 60 54 60
-5.139682e-002 -7.502739e-002 -8.425074e-001 77 79 78
-4.728267e-002 1.241461e-001 -1.014303e+000 76 74 69
1.602181e-002 -4.925003e-002 -9.145125e-001 212 213 217
1.077107e-002 -8.242047e-002 -8.309849e-001 46 51 46
-3.390666e-003 -8.793469e-002 -8.413644e-001 131 134 127
-2.324475e-002 1.810077e-001 -1.006994e+000 39 41 40
3.811103e-002 1.359784e-001 -1.117170e+000 101 103 98
-2.963138e-002 6.756683e-002 -9.725008e-001 14 14 14
-4.572626e-002 7.972740e-002 -9.884282e-001 11 12 14
1.066126e-001 5.333665e-002 -1.042996e+000 101 104 88
-5.269815e-002 6.801665e-002 -9.932893e-001 134 134 126
6.100973e-002 1.800295e-003 -9.556402e-001 164 156 88
-8.848166e-002 -2.225905e-002 -8.832760e-001 30 24 18
1.353555e-001 -6.127492e-002 -9.498096e-001 196 201 204
1.144995e-002 -8.301568e-002 -8.537662e-001 120 122 109
-3.156387e-002 1.877678e-001 -1.004274e+000 81 85 84
-2.877625e-002 1.835883e-001 -1.005475e+000 85 87 85
1.418815e-001 1.515255e-001 -1.099817e+000 76 78 62
1.743291e-001 3.476716e-001 -1.465121e+000 54 55 49
3.805869e-001 2.564715e-001 -1.500206e+000 132 129 120
2.395889e-002 8.607197e-002 -1.047874e+000 94 81 73
-2.789963e-002 5.494099e-002 -9.691728e-001 45 45 37
1.294154e-001 1.010743e-002 -1.020208e+000 102 98 88
5.852725e-002 -4.156508e-003 -9.627540e-001 71 59 49
-3.688171e-002 -5.024252e-002 -8.339885e-001 183 184 189
-3.668961e-002 -5.036497e-002 -8.335673e-001 183 184 189
-3.748948e-002 -5.194111e-002 -8.328617e-001 167 168 172
8.875130e-002 -8.120265e-002 -9.103656e-001 107 87 63
-5.123254e-002 9.348500e-002 -9.442973e-001 81 80 78
-5.123254e-002 9.348500e-002 -9.442973e-001 81 80 78
1.474710e-001 3.522194e-001 -1.451662e+000 27 25 15
4.101192e-002 1.228338e-001 -1.094637e+000 108 110 105
9.254322e-002 9.440333e-002 -1.080038e+000 34 26 24
3.379162e-001 2.566757e-001 -1.501418e+000 128 109 83
-2.639348e-002 6.185553e-002 -9.683345e-001 35 35 35
3.473429e-002 -2.717168e-002 -9.370200e-001 207 208 212
-3.505737e-002 -5.219730e-002 -8.332392e-001 183 184 188
-3.505737e-002 -5.219730e-002 -8.332392e-001 183 184 188
-5.642218e-002 -1.082395e-001 -8.150046e-001 109 82 68
-5.231650e-002 -1.195490e-001 -8.003776e-001 85 61 39
-1.059896e-003 1.349056e-001 -1.082593e+000 85 84 80
3.608277e-001 2.679298e-001 -1.488749e+000 145 141 124
1.296887e-001 1.157928e-001 -1.125355e+000 136 140 126
3.400995e-001 2.513505e-001 -1.486954e+000 121 103 71
-5.987669e-002 8.072108e-002 -9.836079e-001 135 135 127
1.944521e-001 7.657073e-002 -1.130394e+000 87 76 57
7.646836e-002 4.684616e-003 -9.511981e-001 143 144 136
6.944902e-002 -4.179127e-003 -9.511847e-001 232 213 117
-8.442551e-002 -1.478342e-002 -8.779130e-001 37 37 37
1.276197e-001 -1.420779e-002 -1.000660e+000 205 209 212
7.900643e-002 -2.263527e-002 -9.627418e-001 180 184 194
1.114387e-001 -2.837521e-002 -9.708179e-001 201 204 210
-3.474718e-002 -5.443557e-002 -8.321960e-001 177 178 182
-3.184916e-002 -5.541916e-002 -8.312593e-001 180 187 180
7.877527e-002 -6.430021e-002 -9.336422e-001 131 107 79
-1.031390e-001 -8.557627e-002 -8.113770e-001 59 41 29
-4.302017e-002 -1.238413e-001 -8.037683e-001 115 87 66
-4.748594e-002 -1.257336e-001 -7.978819e-001 123 92 61
-5.202368e-002 -1.328855e-001 -7.927844e-001 119 93 70
1.608198e-001 3.729087e-001 -1.439656e+000 178 182 159
-1.025521e-002 1.072056e-001 -1.044165e+000 198 202 195
9.611082e-002 9.017324e-002 -1.084194e+000 198 191 198
8.791011e-002 -5.507634e-003 -9.497923e-001 220 205 103
9.566556e-002 -1.642649e-002 -9.672427e-001 192 199 198
8.368241e-002 -2.576739e-002 -9.609288e-001 186 194 207
4.790452e-002 -3.237020e-002 -9.386677e-001 111 112 116
1.346027e-001 -5.905643e-002 -9.505748e-001 140 143 146
1.346027e-001 -5.905643e-002 -9.505748e-001 140 143 146
-9.718456e-002 -8.829768e-002 -8.134022e-001 69 51 39
-6.903797e-002 -1.199948e-001 -7.858931e-001 63 51 38
-6.903797e-002 -1.199948e-001 -7.858931e-001 63 51 38
-5.907986e-002 -1.231930e-001 -7.980844e-001 128 100 73
-6.286276e-002 -1.238200e-001 -7.901928e-001 64 50 37
-6.161128e-002 -1.240459e-001 -7.816704e-001 120 92 70
-4.935988e-002 -1.294679e-001 -7.966659e-001 103 79 51
-4.863744e-002 -1.340667e-001 -7.900610e-001 94 67 46
1.752440e-001 4.160464e-001 -1.413561e+000 186 192 166
-1.825268e-002 1.578955e-001 -1.043176e+000 81 83 79
-1.151425e-001 -5.559036e-002 -8.223845e-001 30 32 31
-4.328436e-002 -6.700440e-002 -8.417932e-001 68 71 65
-4.328436e-002 -6.700440e-002 -8.417932e-001 68 71 65
-6.519140e-002 -1.216866e-001 -7.836105e-001 117 87 61
-6.527373e-002 -1.225006e-001 -7.892225e-001 65 47 37
-4.675178e-002 -1.264044e-001 -7.956097e-001 127 97 67
-2.721876e-002 -1.281572e-001 -8.037485e-001 113 86 57
-6.247151e-002 -1.246970e-001 -7.808001e-001 103 70 51
-3.255202e-002 -1.286272e-001 -7.752731e-001 96 71 47
-4.480785e-002 -1.351303e-001 -7.910916e-001 106 80 55
-6.085506e-002 -1.158208e-001 -8.018602e-001 96 75 54
1.367552e-001 -5.225524e-002 -9.607345e-001 202 206 209
-5.544468e-002 -6.767400e-002 -8.456959e-001 180 183 176
-4.105296e-002 -1.283781e-001 -7.992747e-001 134 105 75
-4.589875e-002 1.257808e-001 -1.020581e+000 78 77 73
1.295835e-001 -5.287207e-002 -9.458245e-001 206 213 215
2.188691e-002 1.375122e-001 -1.067040e+000 114 114 109
-5.680833e-002 -6.133009e-002 -8.418615e-001 17 17 15
-1.129859e-001 -7.189057e-002 -8.198628e-001 100 70 46
-4.700105e-002 -1.189618e-001 -8.054264e-001 133 108 78
-2.845205e-002 1.891182e-001 -1.017275e+000 42 43 45
1.892789e-001 4.735410e-001 -1.391787e+000 187 195 157
-3.081690e-002 1.836866e-001 -1.005979e+000 46 47 42
-2.956741e-002 1.796970e-001 -1.007682e+000 72 72 74
-1.860954e-002 1.762556e-001 -1.008822e+000 45 47 46
-2.712738e-002 1.622189e-001 -1.000204e+000 44 46 43
1.376442e-001 1.680338e-001 -1.181317e+000 113 114 97
1.376442e-001 1.680338e-001 -1.181317e+000 113 114 97
2.870546e-002 5.255405e-002 -1.014504e+000 119 116 113
1.272421e-002 -7.036378e-002 -8.629790e-001 93 93 79
1.740484e-001 5.018651e-001 -1.382015e+000 33 32 27
-2.351533e-002 1.709436e-001 -1.010515e+000 90 91 91
-6.373218e-002 7.378897e-002 -9.681641e-001 160 152 149
4.763180e-002 1.116849e-001 -1.081908e+000 106 107 101
1.198516e-001 1.262355e-001 -1.131168e+000 153 145 116
1.427753e-001 1.432938e-001 -1.117586e+000 86 90 76
1.425229e-001 7.368565e-002 -1.085136e+000 108 102 81
1.290970e-001 -1.956163e-002 -9.912492e-001 203 204 206
1.290970e-001 -1.956163e-002 -9.912492e-001 203 204 206
1.110936e-001 -3.217080e-002 -9.678567e-001 202 205 215
1.200253e-001 -3.052543e-002 -9.750535e-001 152 153 155
1.174760e-001 -3.151671e-002 -9.725153e-001 139 142 147
1.174760e-001 -3.151671e-002 -9.725153e-001 139 142 147
1.055549e-001 -5.705012e-002 -9.228461e-001 212 213 215
1.563204e-002 -7.972029e-002 -8.373519e-001 156 150 137
1.151084e-002 -8.186541e-002 -8.348123e-001 135 134 128
-2.903662e-002 1.906746e-001 -9.995734e-001 106 108 102
1.417021e-001 1.510198e-001 -1.099742e+000 68 68 57
8.133920e-002 7.559608e-004 -9.520539e-001 223 211 106
1.046964e-001 -6.741911e-003 -9.649583e-001 90 116 134
1.271199e-001 1.197194e-002 -1.019914e+000 160 161 155
1.265944e-001 -4.942042e-004 -1.009191e+000 158 164 158
1.045122e-001 -2.157044e-002 -9.771105e-001 201 205 206
3.336343e-002 -3.784359e-002 -9.261446e-001 200 200 202
2.070882e-002 -6.293255e-002 -8.903750e-001 171 169 170
1.316790e-001 1.081098e-001 -1.107894e+000 78 78 67
1.316790e-001 1.081098e-001 -1.107894e+000 78 78 67
1.396397e-001 7.699140e-002 -1.086460e+000 109 103 79
8.348087e-002 1.427406e-003 -9.521849e-001 47 49 60
8.348087e-002 1.427406e-003 -9.521849e-001 47 49 60
1.275728e-001 8.965979e-003 -1.018857e+000 204 203 214
-3.427312e-002 -4.529971e-002 -8.658153e-001 212 214 219
-6.423341e-002 1.017450e-001 -1.006609e+000 14 14 10
1.583636e-001 6.660580e-002 -1.100962e+000 104 92 68
1.583636e-001 6.660580e-002 -1.100962e+000 104 92 68
7.485209e-002 -1.659589e-002 -9.664668e-001 115 104 69
1.846518e-002 -7.193942e-002 -8.657429e-001 110 111 97
1.123505e-001 -9.138033e-002 -9.166730e-001 75 62 46
1.592421e-001 3.619268e-001 -1.423260e+000 175 187 150
1.632130e-001 8.664718e-002 -1.133094e+000 122 107 82
1.332846e-001 -4.340201e-003 -1.007629e+000 104 97 71
-3.526313e-002 -4.418797e-002 -8.676173e-001 212 215 222
1.306554e-001 4.976631e-003 -1.012848e+000 121 100 72
-3.430748e-002 -4.697122e-002 -8.613842e-001 78 78 70
-3.369109e-002 -5.970178e-002 -8.415390e-001 117 119 105
9.773303e-002 -2.859417e-002 -9.783500e-001 192 195 200
1.072601e-001 -5.027417e-002 -9.462920e-001 205 209 212
-3.217200e-002 1.812366e-001 -1.005283e+000 48 48 46
1.144153e-002 -8.325678e-002 -8.324073e-001 132 135 129
-7.678815e-002 -1.027196e-001 -8.135750e-001 115 84 64
1.389260e-002 -7.841709e-002 -8.357035e-001 126 128 115
2.927583e-003 -1.023368e-001 -8.441062e-001 49 50 52
-3.895902e-002 -5.563750e-002 -8.545319e-001 105 107 93
-3.895902e-002 -5.563750e-002 -8.545319e-001 105 107 93
-3.559314e-002 1.780123e-001 -1.006491e+000 34 36 33
-6.550354e-002 6.988477e-002 -9.914528e-001 141 141 128
-4.569743e-002 2.992243e-002 -9.467658e-001 14 16 11
-2.057228e-002 1.743476e-001 -1.015188e+000 18 20 19
-2.057228e-002 1.743476e-001 -1.015188e+000 18 20 19
4.534953e-002 1.125851e-001 -1.087332e+000 49 50 55
1.480142e-001 1.114591e-001 -1.133513e+000 242 247 243
-3.752001e-002 -6.607955e-002 -8.439648e-001 105 108 99
1.199193e-001 5.153318e-002 -1.047381e+000 106 98 78
8.887296e-002 -1.835858e-003 -9.533678e-001 46 45 51
7.294570e-002 -1.911842e-002 -9.643798e-001 209 208 201
-5.755385e-002 -1.173168e-001 -7.994616e-001 136 113 82
9.719751e-002 -1.099771e-001 -8.831016e-001 120 93 72
-6.265746e-002 4.139923e-002 -8.790870e-001 182 182 184
-5.775908e-002 7.522807e-002 -9.937290e-001 29 25 14
-5.979687e-002 4.885210e-002 -9.651611e-001 179 174 178
-1.166500e-001 -7.982134e-002 -8.103111e-001 87 61 41
-1.048466e-001 -8.796462e-002 -8.080415e-001 104 74 55
-6.245082e-002 9.346705e-002 -9.739705e-001 195 192 186
-6.379830e-002 7.925317e-002 -9.797526e-001 146 146 138
8.813553e-002 9.031508e-002 -1.071448e+000 89 71 54
1.260172e-001 -1.162048e-002 -9.963383e-001 202 206 209
-5.070618e-002 -1.245484e-001 -7.947338e-001 138 110 82
-3.280035e-002 -1.285521e-001 -7.996088e-001 117 91 64
-1.188983e-002 -1.396950e-001 -7.975642e-001 126 101 71
3.219639e-002 -3.844849e-002 -9.334373e-001 154 155 159
5.150197e-002 -6.434150e-002 -8.939219e-001 120 93 64
-6.513724e-002 -9.929278e-002 -8.124571e-001 108 88 66
-5.829385e-002 -1.176005e-001 -7.990638e-001 139 116 83
4.961347e-002 -2.416380e-002 -9.449696e-001 183 184 189
-9.592337e-002 -1.013065e-001 -7.982069e-001 117 90 60
-2.951687e-003 1.941606e-001 -1.189524e+000 100 101 96
-1.267919e-001 -8.111801e-002 -8.058694e-001 70 51 35
6.168975e-002 -6.702332e-002 -8.954829e-001 119 90 60
-3.471669e-002 -1.023576e-001 -8.287155e-001 214 217 222
6.153265e-002 -1.137659e-001 -6.855444e-001 0 255 0
4.727947e-002 -9.958205e-002 -7.313228e-001 255 255 0
8.655235e-002 -1.036373e-001 -7.187181e-001 255 0 0
6.408718e-002 -8.504257e-002 -7.593327e-001 255 255 0
9.264495e-002 -1.060790e-001 -6.661683e-001 0 255 0
6.978965e-002 -9.509115e-002 -7.092601e-001 255 255 0
1.282112e-001 -9.833184e-002 -7.032653e-001 255 0 0
9.248467e-002 -9.033317e-002 -7.373187e-001 255 255 0
3.093143e-002 -9.237281e-002 -6.792526e-001 0 255 0
2.450905e-002 -7.946270e-002 -7.271283e-001 255 255 0
