ply
format ascii 1.0
element face 0
property list uchar int vertex_indices
element vertex 268
property float x
property float y
property float z
property uchar diffuse_red
property uchar diffuse_green
property uchar diffuse_blue
end_header
4.197076e-004 1.609063e-001 -9.890103e-001 39 43 46
4.315865e-003 1.555001e-001 -9.882498e-001 33 33 33
-4.987159e-003 1.547725e-001 -9.846475e-001 35 37 36
-9.803914e-003 1.515594e-001 -9.807745e-001 77 78 82
-9.803914e-003 1.515594e-001 -9.807745e-001 77 78 82
3.238519e-003 1.505333e-001 -9.913971e-001 19 20 23
1.458657e-001 9.890775e-002 -1.082268e+000 68 70 57
1.228761e-001 8.752288e-002 -1.093301e+000 156 159 150
-3.058353e-002 7.204602e-002 -9.696855e-001 74 73 53
1.018084e-001 4.194480e-002 -1.038882e+000 184 185 139
6.676698e-002 3.316423e-003 -1.004199e+000 103 104 109
4.972173e-002 -1.850986e-003 -9.960409e-001 208 209 213
1.113153e-001 -7.104788e-003 -1.039438e+000 212 213 217
-1.417255e-003 1.535147e-001 -9.851801e-001 39 41 40
-1.954630e-004 1.522237e-001 -9.862589e-001 78 79 81
-8.804169e-004 1.527158e-001 -9.877108e-001 78 79 81
-8.818396e-003 1.515617e-001 -9.818550e-001 23 24 28
1.002676e-003 1.473542e-001 -9.897741e-001 83 85 84
-7.777190e-003 1.445693e-001 -9.882475e-001 35 37 34
1.271349e-001 1.244089e-001 -1.072789e+000 176 178 164
1.545764e-001 1.047622e-001 -1.089011e+000 69 81 65
1.042776e-001 9.694259e-002 -1.083337e+000 72 66 50
1.491497e-001 8.717677e-002 -1.104058e+000 81 76 60
8.079531e-002 8.082084e-002 -1.046670e+000 177 179 171
9.812521e-002 8.335497e-002 -1.071119e+000 130 124 105
-2.888006e-002 6.709916e-002 -9.742823e-001 119 119 107
9.401224e-002 4.927326e-002 -1.025012e+000 149 145 136
1.084046e-001 4.005924e-002 -1.042595e+000 197 179 84
1.511871e-001 1.095388e-002 -1.075604e+000 149 153 156
1.132416e-001 -7.486345e-003 -1.039493e+000 217 220 224
-9.263515e-003 1.563555e-001 -9.814170e-001 86 88 85
-8.600764e-003 1.543175e-001 -9.817265e-001 25 27 26
4.845546e-004 1.540055e-001 -9.886729e-001 23 25 25
2.294328e-003 1.529905e-001 -9.898013e-001 78 82 81
8.999729e-004 1.515588e-001 -9.886590e-001 16 19 21
8.999729e-004 1.515588e-001 -9.886590e-001 16 19 21
9.645619e-004 1.495836e-001 -9.908294e-001 79 80 82
1.515662e-001 1.097082e-001 -1.085974e+000 102 99 85
7.393268e-002 1.090597e-001 -1.066775e+000 19 20 16
1.347852e-001 9.576147e-002 -1.081145e+000 138 141 122
6.996787e-003 7.928931e-002 -9.889328e-001 24 24 24
9.527538e-002 8.205509e-002 -1.058125e+000 100 101 85
4.346879e-002 7.852803e-002 -1.020023e+000 66 56 50
5.730890e-002 7.920367e-002 -1.040205e+000 84 75 63
3.825014e-002 7.649130e-002 -1.026611e+000 93 80 72
1.089998e-001 3.280606e-002 -1.043073e+000 194 194 106
8.378816e-002 2.778152e-002 -1.029551e+000 161 151 68
9.923338e-002 2.169296e-002 -1.038970e+000 145 150 89
-8.624104e-003 1.494454e-001 -9.814601e-001 78 79 81
1.089607e-003 1.483918e-001 -9.887058e-001 78 80 80
1.658181e-003 1.479976e-001 -9.874847e-001 78 80 80
1.009662e-001 1.224695e-001 -1.112925e+000 57 60 43
1.009662e-001 1.224695e-001 -1.112925e+000 57 60 43
1.466667e-001 1.120577e-001 -1.105079e+000 222 224 217
9.884368e-002 1.205553e-001 -1.115214e+000 168 170 155
7.758439e-002 1.103677e-001 -1.096784e+000 80 65 51
2.199743e-002 9.728294e-002 -1.034680e+000 89 88 84
1.296064e-001 9.223996e-002 -1.083054e+000 157 163 136
9.031865e-002 8.459729e-002 -1.064357e+000 91 91 81
1.272472e-001 8.599676e-002 -1.100506e+000 134 144 134
9.171616e-002 8.127475e-002 -1.063652e+000 29 30 33
-1.954080e-002 7.050332e-002 -9.736266e-001 125 121 109
1.034077e-001 4.121933e-002 -1.032369e+000 211 212 136
1.136436e-001 2.774545e-002 -1.037690e+000 80 104 152
8.641381e-002 2.540958e-002 -1.030917e+000 182 164 89
8.039067e-002 2.168297e-002 -1.028083e+000 192 192 190
9.003728e-002 1.181583e-001 -1.113010e+000 20 22 13
1.512737e-001 1.032368e-001 -1.082579e+000 61 61 59
1.450971e-001 9.979574e-002 -1.081902e+000 66 67 58
1.124495e-001 9.675498e-002 -1.087770e+000 135 130 110
1.302613e-001 9.079561e-002 -1.091702e+000 63 65 52
1.370968e-001 9.012168e-002 -1.096869e+000 81 81 80
1.370968e-001 9.012168e-002 -1.096869e+000 81 81 80
1.060738e-001 8.958187e-002 -1.087454e+000 96 82 58
-4.366145e-002 7.768220e-002 -9.579212e-001 130 130 122
7.379547e-002 7.736502e-002 -1.056267e+000 89 81 69
1.354175e-001 7.198652e-002 -1.099931e+000 82 66 50
1.021950e-001 4.432552e-002 -1.038571e+000 31 27 37
1.060415e-001 4.063391e-002 -1.041339e+000 207 206 118
1.024255e-001 3.552221e-002 -1.038986e+000 223 209 106
1.124628e-001 3.034535e-002 -1.037623e+000 62 87 124
1.016776e-001 3.027606e-002 -1.038547e+000 211 196 102
9.770960e-002 2.340537e-002 -1.037818e+000 174 165 72
9.811627e-002 2.310385e-002 -1.036947e+000 174 165 72
6.012456e-002 1.514217e-002 -1.011248e+000 216 217 221
1.409020e-001 1.292836e-002 -1.067916e+000 201 204 210
8.028073e-002 3.475505e-003 -1.020839e+000 151 152 154
8.028073e-002 3.475505e-003 -1.020839e+000 151 152 154
9.612147e-002 2.692603e-003 -1.033497e+000 128 128 130
9.612147e-002 2.692603e-003 -1.033497e+000 128 128 130
1.017653e-001 2.110194e-003 -1.037491e+000 120 121 125
1.021456e-001 1.704142e-003 -1.036884e+000 120 121 125
1.314218e-001 -3.172500e-002 -1.039597e+000 115 94 65
1.630122e-001 -3.980408e-002 -1.059513e+000 131 115 82
-7.365426e-003 1.577646e-001 -9.843505e-001 84 86 81
-8.289278e-003 1.496147e-001 -9.869352e-001 82 83 85
1.211499e-004 1.479456e-001 -9.877866e-001 79 81 80
4.691807e-002 9.123112e-002 -1.027510e+000 112 111 107
1.179756e-001 8.517285e-002 -1.089513e+000 118 112 85
4.488413e-002 6.787064e-003 -9.992002e-001 94 95 99
8.429787e-002 3.605358e-003 -1.025755e+000 124 126 125
9.432391e-002 1.713928e-003 -1.021019e+000 184 184 186
9.432391e-002 1.713928e-003 -1.021019e+000 184 184 186
5.906017e-002 -4.666850e-003 -1.002196e+000 142 143 145
1.682810e-001 -6.213412e-002 -1.049452e+000 93 76 56
7.693299e-002 9.138932e-002 -1.053570e+000 80 70 58
1.203687e-001 8.963718e-002 -1.093895e+000 171 179 170
9.342267e-002 4.541825e-002 -1.028288e+000 240 230 145
8.387240e-002 2.437304e-002 -1.030501e+000 48 47 46
1.039265e-001 1.856570e-002 -1.042975e+000 18 33 54
4.921920e-002 1.578259e-003 -9.998181e-001 203 204 208
4.921920e-002 1.578259e-003 -9.998181e-001 203 204 208
1.370189e-001 -7.130716e-003 -1.059807e+000 208 212 215
1.411628e-001 1.034531e-001 -1.082135e+000 169 171 150
1.410273e-001 9.401889e-002 -1.090468e+000 164 169 147
7.130591e-002 8.596845e-002 -1.041779e+000 16 17 15
1.424469e-001 8.339598e-002 -1.097646e+000 188 195 187
1.043153e-001 2.674039e-002 -1.042346e+000 201 179 93
1.870681e-003 1.518900e-001 -9.886532e-001 73 79 77
1.333304e-001 8.359830e-002 -1.092563e+000 165 175 167
2.654980e-003 9.451707e-002 -9.917749e-001 66 68 65
1.098596e-001 4.675060e-003 -1.045563e+000 207 210 215
-7.899171e-003 1.531138e-001 -9.825663e-001 70 71 73
9.402556e-002 7.815387e-002 -1.058562e+000 100 98 90
4.756065e-002 3.275832e-002 -1.007981e+000 171 171 172
-1.021535e-001 -4.259265e-003 -8.778147e-001 62 48 38
-9.568419e-003 1.499074e-001 -9.816406e-001 77 78 80
6.872253e-002 8.339015e-002 -1.041406e+000 49 44 40
3.480971e-002 3.688061e-002 -1.000055e+000 209 210 214
6.794550e-002 3.437764e-002 -1.023126e+000 223 191 166
6.449280e-002 3.450131e-002 -1.020825e+000 193 163 139
-9.143347e-003 1.563874e-001 -9.815953e-001 86 88 85
-1.743167e-003 1.512778e-001 -9.871121e-001 11 12 16
1.698311e-002 7.909020e-002 -1.000094e+000 68 61 58
5.718389e-002 5.720368e-002 -1.023798e+000 218 191 171
5.722212e-002 3.621351e-002 -1.016052e+000 203 177 162
5.881883e-002 3.577101e-002 -1.017498e+000 222 194 180
3.566716e-002 5.735743e-004 -9.902950e-001 198 199 203
-1.016112e-001 -2.332986e-003 -8.780606e-001 32 22 16
-3.876730e-003 -6.429809e-002 -9.384737e-001 126 127 121
-1.151666e-002 -7.861493e-002 -9.329188e-001 168 170 167
3.916791e-002 6.936988e-002 -1.014434e+000 116 100 84
7.084954e-002 5.353095e-002 -1.032608e+000 181 182 177
5.619795e-002 4.663271e-002 -1.019048e+000 199 178 161
1.082103e-001 4.290543e-002 -1.042164e+000 25 42 35
5.861106e-002 3.966844e-002 -1.018675e+000 218 194 182
6.075904e-002 3.742522e-002 -1.018972e+000 203 176 160
3.732798e-002 3.235292e-002 -1.000272e+000 217 216 211
7.221455e-002 2.468313e-002 -1.023830e+000 178 180 178
-8.720248e-002 4.790589e-003 -8.938606e-001 68 56 41
3.038283e-002 -9.128248e-003 -9.762409e-001 108 93 78
3.038283e-002 -9.128248e-003 -9.762409e-001 108 93 78
-9.429749e-002 -1.721674e-001 -8.493400e-001 109 89 65
-6.892076e-003 9.498835e-002 -9.838133e-001 45 46 46
6.076975e-003 -3.233308e-002 -9.442883e-001 135 138 131
1.329231e-001 -2.975936e-002 -1.047050e+000 119 95 64
-9.337897e-002 -1.416935e-001 -8.559451e-001 130 105 74
1.076008e-001 9.044091e-002 -1.075834e+000 7 4 2
1.076008e-001 9.044091e-002 -1.075834e+000 7 4 2
1.692566e-002 8.457026e-002 -9.978141e-001 198 202 195
6.777416e-002 5.580172e-002 -1.031471e+000 212 212 214
3.554403e-002 3.970673e-002 -1.000973e+000 206 207 211
1.294738e-001 3.779370e-002 -1.057696e+000 85 108 138
2.779431e-002 -6.567877e-003 -9.819047e-001 123 100 78
-5.535008e-002 -2.749259e-002 -9.090446e-001 40 41 37
1.661829e-001 -8.035162e-002 -1.037098e+000 105 88 64
-8.799800e-002 -1.438486e-001 -8.603226e-001 124 98 71
-7.748780e-002 -1.776978e-001 -8.624863e-001 120 90 66
-2.132503e-002 7.166893e-002 -9.660227e-001 150 152 148
5.020985e-002 2.790785e-002 -1.007867e+000 206 201 199
8.672084e-002 2.753169e-002 -1.031810e+000 192 176 79
-5.523118e-002 -3.223264e-002 -9.089940e-001 151 155 141
-6.017077e-002 -3.631672e-002 -9.035589e-001 149 155 141
2.520577e-002 -4.152640e-002 -9.285858e-001 142 143 138
-5.668493e-002 -4.923741e-002 -9.035484e-001 159 162 153
-9.497807e-002 -1.694441e-001 -8.485184e-001 120 91 67
-7.417832e-002 -1.815913e-001 -8.653771e-001 119 93 66
1.276351e-002 1.235009e-001 -9.989403e-001 70 72 67
1.867205e-002 1.057613e-001 -1.005192e+000 79 81 78
6.696032e-002 3.059439e-002 -1.020823e+000 192 170 155
1.862290e-003 -6.057120e-002 -9.451790e-001 50 51 43
-1.019451e-001 -1.590581e-001 -8.448703e-001 95 71 47
-1.035124e-001 -1.684286e-001 -8.404911e-001 101 74 53
-8.164749e-002 -1.724782e-001 -8.604364e-001 106 85 58
1.336680e-002 1.033055e-001 -1.000322e+000 62 64 59
9.630200e-002 4.279489e-002 -1.035011e+000 230 219 148
-7.720605e-003 -7.817105e-002 -9.350452e-001 203 206 199
-7.218432e-003 -8.902634e-002 -9.364172e-001 42 43 45
1.186817e-001 2.924719e-002 -1.051511e+000 67 95 134
-5.711413e-002 -1.848044e-002 -9.090344e-001 101 105 90
5.629939e-002 -5.855087e-002 -9.798638e-001 213 214 218
-1.135308e-002 1.512580e-001 -9.807420e-001 37 37 36
8.149706e-002 8.847019e-002 -1.047215e+000 57 49 44
8.591626e-002 8.675583e-002 -1.049168e+000 76 72 68
-2.185254e-002 6.260572e-002 -9.506649e-001 148 145 136
-8.892984e-002 -2.921431e-002 -9.258198e-001 69 71 57
-6.834914e-003 1.551230e-001 -9.840305e-001 91 92 87
-4.524825e-003 1.554082e-001 -9.865287e-001 88 89 84
-9.816606e-003 1.546405e-001 -9.825252e-001 29 29 27
-9.143352e-003 1.517089e-001 -9.820530e-001 32 32 30
7.123315e-002 9.044988e-002 -1.040159e+000 42 41 37
1.449784e-002 7.860934e-002 -9.860520e-001 28 28 28
9.251944e-002 8.280448e-002 -1.053372e+000 62 62 54
4.954962e-002 7.670542e-002 -1.020598e+000 28 25 20
9.765167e-002 7.799295e-002 -1.055921e+000 114 114 105
9.090617e-002 7.042704e-002 -1.045982e+000 236 230 218
8.983292e-002 6.938418e-002 -1.045416e+000 61 58 43
8.415138e-002 2.140087e-002 -1.028838e+000 168 168 166
3.885137e-003 -2.180748e-002 -9.810377e-001 163 162 156
3.414825e-002 -1.610107e-002 -9.939170e-001 85 75 65
-5.101790e-003 1.516371e-001 -9.849232e-001 32 31 38
-3.037243e-002 1.101123e-001 -9.513001e-001 34 33 31
-1.980418e-002 7.526862e-002 -9.569624e-001 176 173 164
-1.135160e-002 6.913191e-002 -9.645842e-001 127 127 117
8.131186e-002 7.561610e-002 -1.042298e+000 86 78 70
5.208808e-002 -2.320305e-002 -1.003731e+000 126 101 75
5.631342e-002 -2.434853e-002 -1.007178e+000 123 95 73
2.126755e-002 8.221730e-002 -9.927724e-001 50 50 38
2.993596e-002 7.832934e-002 -9.986809e-001 84 71 62
9.821655e-002 8.332108e-002 -1.058201e+000 25 17 11
8.714717e-002 6.970158e-002 -1.044073e+000 41 36 32
7.635491e-002 3.690322e-002 -1.025130e+000 56 51 48
9.913536e-002 2.220579e-002 -1.038726e+000 167 163 76
1.281633e-001 2.588423e-002 -1.062714e+000 196 197 197
-5.108737e-002 -5.415628e-002 -9.734456e-001 152 149 130
-8.005661e-002 -1.006762e-001 -9.736325e-001 169 172 163
-3.608083e-002 7.835524e-002 -9.441027e-001 161 151 144
-3.608083e-002 7.835524e-002 -9.441027e-001 161 151 144
7.245056e-002 8.751162e-002 -1.035532e+000 106 105 101
8.727869e-002 7.359436e-002 -1.043912e+000 63 65 54
1.011902e-001 7.272045e-002 -1.057662e+000 115 104 91
1.236523e-001 3.030219e-002 -1.056058e+000 83 115 153
1.036304e-001 1.561663e-002 -1.043059e+000 174 178 190
2.292420e-002 -2.002801e-003 -9.876400e-001 108 90 69
-7.506208e-002 -9.409656e-002 -9.682038e-001 166 170 156
1.012268e-001 7.903452e-002 -1.060307e+000 195 195 183
1.012268e-001 7.903452e-002 -1.060307e+000 195 195 183
9.496584e-002 1.828080e-002 -1.035731e+000 194 187 176
7.499620e-002 4.203450e-003 -1.019925e+000 94 94 99
9.305466e-002 5.798623e-003 -1.033378e+000 208 208 208
1.374573e-001 1.344476e-002 -1.064051e+000 207 211 211
8.356169e-002 3.643441e-003 -1.026400e+000 145 144 149
5.051118e-002 -4.166985e-003 -1.004259e+000 150 152 151
7.733544e-002 -2.412974e-002 -1.019690e+000 132 103 73
-6.266537e-003 1.530961e-001 -9.850579e-001 41 40 45
-6.266537e-003 1.530961e-001 -9.850579e-001 41 40 45
-2.906893e-002 7.239559e-002 -9.503995e-001 155 153 141
1.041850e-001 9.196863e-002 -1.069025e+000 67 57 46
1.041850e-001 9.196863e-002 -1.069025e+000 67 57 46
9.859688e-002 8.243058e-002 -1.058690e+000 32 22 11
9.810922e-002 3.292357e-002 -1.038365e+000 76 102 153
9.810922e-002 3.292357e-002 -1.038365e+000 76 102 153
1.208469e-001 3.241847e-002 -1.053272e+000 95 120 160
1.362371e-001 2.002445e-002 -1.065752e+000 206 207 209
1.362371e-001 2.002445e-002 -1.065752e+000 206 207 209
1.932788e-002 -2.411579e-002 -9.865271e-001 174 174 172
-9.762638e-003 -3.948901e-002 -9.776842e-001 137 139 126
-8.973690e-002 -8.927915e-002 -9.655464e-001 160 163 154
8.585275e-002 4.620175e-002 -1.032471e+000 60 54 60
-1.351318e-001 -6.019720e-002 -9.033109e-001 77 79 78
-1.665681e-002 1.021267e-001 -9.789372e-001 76 74 69
2.317983e-002 -1.716013e-002 -9.865218e-001 212 213 217
3.802595e-001 -2.013563e-001 1.327164e-001 0 255 0
3.640515e-001 -1.933505e-001 8.609869e-002 255 255 0
3.111184e-001 -2.514649e-002 -6.467882e-001 255 0 0
2.748619e-001 -2.015384e-002 -6.808549e-001 255 255 0
6.814297e-001 1.150940e-001 -5.892719e-001 0 255 0
6.372433e-001 1.067921e-001 -6.111497e-001 255 255 0
