ply
format ascii 1.0
element face 0
property list uchar int vertex_indices
element vertex 834
property float x
property float y
property float z
property uchar diffuse_red
property uchar diffuse_green
property uchar diffuse_blue
end_header
-1.936329e-002 1.862932e-001 -1.018950e+000 39 43 46
-1.284155e-002 1.662600e-001 -1.005974e+000 33 33 33
-2.291089e-002 1.657970e-001 -1.003107e+000 35 37 36
-3.004865e-002 1.656360e-001 -1.004431e+000 77 78 82
-3.064295e-002 1.675232e-001 -1.006219e+000 77 78 82
-1.434664e-002 1.640370e-001 -1.011784e+000 19 20 23
1.425671e-001 9.387663e-002 -1.074501e+000 68 70 57
1.297004e-001 1.026937e-001 -1.117544e+000 156 159 150
-5.183230e-002 6.652834e-002 -9.876400e-001 74 73 53
7.176243e-002 -9.315892e-003 -9.440848e-001 184 185 139
4.195272e-002 -3.754241e-002 -9.204997e-001 103 104 109
3.000293e-002 -3.814133e-002 -9.229893e-001 208 209 213
7.188256e-002 -4.597016e-002 -9.335146e-001 212 213 217
-1.992183e-002 1.658723e-001 -1.005643e+000 39 41 40
-1.810506e-002 1.628731e-001 -1.004996e+000 78 79 81
-1.830200e-002 1.633642e-001 -1.005381e+000 78 79 81
-2.897465e-002 1.660263e-001 -1.005592e+000 23 24 28
-1.796771e-002 1.626523e-001 -1.013491e+000 83 85 84
-3.044679e-002 1.702581e-001 -1.023438e+000 35 37 34
1.325573e-001 1.429931e-001 -1.094983e+000 176 178 164
1.610352e-001 1.140542e-001 -1.103092e+000 69 81 65
1.113173e-001 1.264681e-001 -1.128621e+000 72 66 50
1.596373e-001 9.833982e-002 -1.122166e+000 81 76 60
6.753345e-002 7.994287e-002 -1.053939e+000 177 179 171
9.245283e-002 8.300960e-002 -1.071791e+000 130 124 105
-5.228472e-002 6.582720e-002 -9.974831e-001 119 119 107
6.505046e-002 -2.509126e-003 -9.424177e-001 149 145 136
7.595262e-002 -1.247190e-002 -9.419685e-001 197 179 84
1.058956e-001 -3.188627e-002 -9.629397e-001 149 153 156
7.275889e-002 -4.684325e-002 -9.315082e-001 217 220 224
-2.805526e-002 1.691293e-001 -1.001995e+000 86 88 85
-2.801052e-002 1.672844e-001 -1.003160e+000 25 27 26
-1.623834e-002 1.634690e-001 -1.004575e+000 23 25 25
-1.441696e-002 1.624442e-001 -1.005599e+000 78 82 81
-1.665841e-002 1.623671e-001 -1.006879e+000 16 19 21
-1.681449e-002 1.630288e-001 -1.007393e+000 16 19 21
-1.604419e-002 1.614694e-001 -1.009544e+000 79 80 82
1.585181e-001 1.213935e-001 -1.102713e+000 102 99 85
7.572874e-002 1.659380e-001 -1.148130e+000 19 20 16
1.312287e-001 9.106407e-002 -1.073299e+000 138 141 122
-1.511265e-002 7.522192e-002 -1.005037e+000 24 24 24
8.558328e-002 8.791688e-002 -1.075201e+000 100 101 85
2.443525e-002 7.739659e-002 -1.032261e+000 66 56 50
4.431688e-002 7.411750e-002 -1.039455e+000 84 75 63
2.285594e-002 7.243774e-002 -1.030973e+000 93 80 72
7.576896e-002 -1.731286e-002 -9.429056e-001 194 194 106
5.785643e-002 -1.382394e-002 -9.520108e-001 161 151 68
6.861796e-002 -2.130552e-002 -9.499686e-001 145 150 89
-2.993725e-002 1.658283e-001 -1.008378e+000 78 79 81
-1.734495e-002 1.613352e-001 -1.009903e+000 78 80 80
-1.715342e-002 1.602840e-001 -1.008816e+000 78 80 80
1.793781e-001 3.762925e-001 -1.489397e+000 57 60 43
1.793781e-001 3.762925e-001 -1.489397e+000 57 60 43
1.594583e-001 1.214191e-001 -1.107636e+000 222 224 217
1.770803e-001 3.759692e-001 -1.499091e+000 168 170 155
1.085923e-001 2.897694e-001 -1.369433e+000 80 65 51
-1.729650e-003 1.596374e-001 -1.131037e+000 89 88 84
1.273047e-001 9.001858e-002 -1.078787e+000 157 163 136
8.285726e-002 8.294476e-002 -1.063835e+000 91 91 81
1.391207e-001 1.071582e-001 -1.135289e+000 134 144 134
8.278183e-002 7.481239e-002 -1.055571e+000 29 30 33
-3.641375e-002 5.612023e-002 -9.777069e-001 125 121 109
7.138100e-002 -9.580473e-003 -9.434571e-001 211 212 136
7.659207e-002 -2.209307e-002 -9.387000e-001 80 104 152
5.952752e-002 -1.523343e-002 -9.544060e-001 182 164 89
5.482853e-002 -1.666716e-002 -9.553850e-001 192 192 190
1.603658e-001 3.898835e-001 -1.525352e+000 20 22 13
1.499924e-001 1.013873e-001 -1.079979e+000 61 61 59
1.421880e-001 9.558922e-002 -1.075377e+000 66 67 58
1.216970e-001 1.251092e-001 -1.131275e+000 135 130 110
1.352889e-001 1.006967e-001 -1.106781e+000 63 65 52
1.450961e-001 1.022626e-001 -1.115813e+000 81 81 80
1.450961e-001 1.022626e-001 -1.115813e+000 81 81 80
1.124229e-001 1.129444e-001 -1.124786e+000 96 82 58
-6.246807e-002 6.788680e-002 -9.731006e-001 130 130 122
6.396086e-002 7.675366e-002 -1.059709e+000 89 81 69
1.356698e-001 6.969229e-002 -1.094645e+000 82 66 50
7.221078e-002 -7.691887e-003 -9.438397e-001 31 27 37
7.463473e-002 -1.107525e-002 -9.436393e-001 207 206 118
7.147249e-002 -1.435086e-002 -9.429101e-001 223 209 106
7.646793e-002 -1.889980e-002 -9.424222e-001 62 87 124
7.051364e-002 -1.673905e-002 -9.459756e-001 211 196 102
6.771896e-002 -2.014255e-002 -9.493714e-001 174 165 72
6.760591e-002 -2.076004e-002 -9.478647e-001 174 165 72
3.874777e-002 -2.338850e-002 -9.400254e-001 216 217 221
9.830126e-002 -3.013897e-002 -9.595691e-001 201 204 210
5.212491e-002 -3.519945e-002 -9.356180e-001 151 152 154
5.223072e-002 -3.580030e-002 -9.334570e-001 151 152 154
6.362458e-002 -3.725880e-002 -9.389053e-001 128 128 130
6.362458e-002 -3.725880e-002 -9.389053e-001 128 128 130
6.748617e-002 -3.801453e-002 -9.401317e-001 120 121 125
6.751513e-002 -3.817895e-002 -9.389575e-001 120 121 125
7.828853e-002 -6.522969e-002 -9.150259e-001 115 94 65
9.546627e-002 -7.131320e-002 -9.186008e-001 131 115 82
-2.456428e-002 1.690742e-001 -1.002132e+000 84 86 81
-2.773541e-002 1.669841e-001 -1.011980e+000 82 83 85
-1.887313e-002 1.616056e-001 -1.010323e+000 79 81 80
3.019517e-002 1.089606e-001 -1.064713e+000 112 111 107
1.224028e-001 9.927213e-002 -1.113440e+000 118 112 85
2.777057e-002 -3.087813e-002 -9.282088e-001 94 95 99
5.552795e-002 -3.580113e-002 -9.366624e-001 124 126 125
5.993340e-002 -4.146258e-002 -9.214734e-001 184 184 186
5.993340e-002 -4.146258e-002 -9.214734e-001 184 184 186
3.690399e-002 -4.190860e-002 -9.204309e-001 142 143 145
9.134755e-002 -8.417033e-002 -9.017849e-001 93 76 56
6.803657e-002 9.254358e-002 -1.058641e+000 80 70 58
1.288103e-001 1.083342e-001 -1.123135e+000 171 179 170
6.516501e-002 -4.048656e-003 -9.464057e-001 240 230 145
5.782007e-002 -1.490777e-002 -9.561038e-001 48 47 46
7.218911e-002 -2.311299e-002 -9.535434e-001 18 33 54
3.084187e-002 -3.642287e-002 -9.231140e-001 203 204 208
3.084187e-002 -3.642287e-002 -9.231140e-001 203 204 208
8.945670e-002 -4.740089e-002 -9.397209e-001 208 212 215
1.415491e-001 1.055079e-001 -1.084605e+000 169 171 150
1.437138e-001 9.770474e-002 -1.095486e+000 164 169 147
5.807081e-002 9.225690e-002 -1.060585e+000 16 17 15
1.450877e-001 8.489914e-002 -1.098868e+000 188 195 187
7.280009e-002 -1.935409e-002 -9.480874e-001 201 179 93
-1.542333e-002 1.620711e-001 -1.006376e+000 73 79 77
1.383237e-001 9.495960e-002 -1.113460e+000 165 175 167
-2.830886e-002 1.210514e-001 -1.047774e+000 66 68 65
7.422149e-002 -3.504027e-002 -9.474965e-001 207 210 215
-2.740783e-002 1.664700e-001 -1.004464e+000 70 71 73
8.443203e-002 7.777727e-002 -1.064417e+000 100 98 90
2.939631e-002 -1.168087e-003 -9.586529e-001 171 171 172
-7.842514e-002 -3.286817e-002 -8.787429e-001 62 48 38
-2.984437e-002 1.643819e-001 -1.005899e+000 77 78 80
5.612184e-002 9.371201e-002 -1.067973e+000 49 44 40
1.825365e-002 5.843156e-003 -9.614791e-001 209 210 214
4.669812e-002 -7.859889e-004 -9.661508e-001 223 191 166
4.376173e-002 1.669204e-004 -9.666972e-001 193 163 139
-2.804587e-002 1.691220e-001 -1.001977e+000 86 88 85
-1.995538e-002 1.628505e-001 -1.006298e+000 11 12 16
-3.440100e-003 8.076101e-002 -1.021926e+000 68 61 58
3.924216e-002 3.835484e-002 -1.005726e+000 218 191 171
3.774346e-002 2.708520e-003 -9.660643e-001 203 177 162
3.902738e-002 2.997220e-003 -9.685572e-001 222 194 180
2.095957e-002 -3.639722e-002 -9.198144e-001 198 199 203
-7.760091e-002 -3.207183e-002 -8.776770e-001 32 22 16
7.408225e-003 -8.311748e-002 -8.487199e-001 126 127 121
3.439972e-003 -8.882491e-002 -8.482771e-001 168 170 167
2.047319e-002 6.496266e-002 -1.024729e+000 116 100 84
5.225996e-002 3.061330e-002 -1.003700e+000 181 182 177
3.749735e-002 1.894746e-002 -9.834607e-001 199 178 161
7.543784e-002 -9.897838e-003 -9.420472e-001 25 42 35
3.911286e-002 8.779645e-003 -9.747789e-001 218 194 182
4.080009e-002 4.423981e-003 -9.699934e-001 203 176 160
2.080645e-002 -1.161969e-003 -9.545586e-001 217 216 211
4.916336e-002 -1.230635e-002 -9.576870e-001 178 180 178
-7.248112e-002 -2.436897e-002 -8.911293e-001 68 56 41
1.618508e-002 -4.336996e-002 -9.110332e-001 108 93 78
1.618508e-002 -4.336996e-002 -9.110332e-001 108 93 78
-2.349703e-002 -1.192911e-001 -8.155475e-001 109 89 65
-3.683862e-002 1.175651e-001 -1.036170e+000 45 46 46
1.333577e-002 -7.023832e-002 -8.464861e-001 135 138 131
7.975007e-002 -6.704832e-002 -9.112039e-001 119 95 64
-2.686208e-002 -1.099935e-001 -8.207121e-001 130 105 74
1.113831e-001 1.169345e-001 -1.122576e+000 7 4 2
1.114835e-001 1.172255e-001 -1.123080e+000 7 4 2
-5.313867e-003 8.851721e-002 -1.022304e+000 198 202 195
4.968628e-002 3.595772e-002 -1.009283e+000 212 212 214
1.900930e-002 8.631173e-003 -9.628003e-001 206 207 211
9.150244e-002 -1.223509e-002 -9.547426e-001 85 108 138
1.624364e-002 -4.323526e-002 -9.087282e-001 123 100 78
-2.773343e-002 -5.922398e-002 -8.602416e-001 40 41 37
8.561995e-002 -9.268405e-002 -8.902787e-001 105 88 64
-2.403515e-002 -1.108346e-001 -8.209414e-001 124 98 71
-1.379611e-002 -1.206420e-001 -8.139315e-001 120 90 66
-4.457766e-002 6.723424e-002 -9.895030e-001 150 152 148
3.164924e-002 -8.632939e-003 -9.503575e-001 206 201 199
6.009738e-002 -1.463148e-002 -9.514898e-001 192 176 79
-2.594311e-002 -6.248024e-002 -8.576147e-001 151 155 141
-2.907104e-002 -6.433209e-002 -8.563178e-001 149 155 141
1.562352e-002 -7.068968e-002 -8.601204e-001 142 143 138
-2.404230e-002 -7.209773e-002 -8.511591e-001 159 162 153
-2.168017e-002 -1.178854e-001 -8.127721e-001 120 91 67
-1.402185e-002 -1.223407e-001 -8.165679e-001 119 93 66
-7.989529e-003 1.428332e-001 -1.032752e+000 70 72 67
-4.571054e-003 1.336444e-001 -1.056104e+000 79 81 78
4.541692e-002 -6.267046e-003 -9.590517e-001 192 170 155
8.804049e-003 -8.102670e-002 -8.552243e-001 50 51 43
-2.847982e-002 -1.152486e-001 -8.166145e-001 95 71 47
-2.603739e-002 -1.175595e-001 -8.124232e-001 101 74 53
-1.774282e-002 -1.195790e-001 -8.166503e-001 106 85 58
-1.021627e-002 1.241470e-001 -1.043836e+000 62 64 59
6.714729e-002 -8.084921e-003 -9.423725e-001 230 219 148
5.194951e-003 -8.887012e-002 -8.481097e-001 203 206 199
4.934346e-003 -9.327248e-002 -8.505652e-001 42 43 45
8.318456e-002 -1.791856e-002 -9.522179e-001 67 95 134
-3.078588e-002 -5.319403e-002 -8.635873e-001 101 105 90
3.121382e-002 -7.634845e-002 -8.945183e-001 213 214 218
-3.104282e-002 1.650236e-001 -1.004074e+000 37 37 36
6.882455e-002 1.004952e-001 -1.074772e+000 57 49 44
7.320092e-002 9.660679e-002 -1.073756e+000 76 72 68
-6.233078e-002 6.392692e-002 -9.928512e-001 148 145 136
-2.729877e-002 -5.701665e-002 -8.630986e-001 69 71 57
-2.427742e-002 1.660860e-001 -1.002565e+000 91 92 87
-2.090721e-002 1.659190e-001 -1.003657e+000 88 89 84
-2.837795e-002 1.680742e-001 -1.004153e+000 29 29 27
-2.918019e-002 1.668558e-001 -1.006367e+000 32 32 30
5.588658e-002 1.147396e-001 -1.088703e+000 42 41 37
-1.586406e-002 8.018637e-002 -1.014276e+000 28 28 28
8.019591e-002 8.935260e-002 -1.073086e+000 62 62 54
2.815223e-002 7.982039e-002 -1.041815e+000 28 25 20
8.451234e-002 7.794211e-002 -1.064828e+000 114 114 105
7.239107e-002 5.129355e-002 -1.022617e+000 236 230 218
7.124717e-002 5.333989e-002 -1.028315e+000 61 58 43
5.675546e-002 -1.649298e-002 -9.580852e-001 168 168 166
1.730446e-002 -5.732106e-002 -8.803922e-001 163 162 156
2.478055e-002 -5.014857e-002 -9.077748e-001 85 75 65
-2.345362e-002 1.634529e-001 -1.005169e+000 32 31 38
-4.428657e-002 8.478684e-002 -9.498274e-001 34 33 31
-5.040821e-002 6.960143e-002 -9.831341e-001 176 173 164
-3.880854e-002 5.982254e-002 -9.830721e-001 127 127 117
6.392236e-002 7.843504e-002 -1.060128e+000 86 78 70
3.609053e-002 -5.666795e-002 -9.048913e-001 126 101 75
3.782425e-002 -5.683225e-002 -9.098105e-001 123 95 73
-7.617882e-003 8.619922e-002 -1.021455e+000 50 50 38
-5.087655e-003 9.763702e-002 -1.053354e+000 84 71 62
8.739760e-002 8.719946e-002 -1.071835e+000 25 17 11
6.871839e-002 5.720189e-002 -1.034070e+000 41 36 32
5.303206e-002 -5.615251e-003 -9.523416e-001 56 51 48
6.846494e-002 -1.849759e-002 -9.572551e-001 167 163 76
9.363501e-002 -1.441228e-002 -9.760908e-001 196 197 197
1.297498e-002 -7.471200e-002 -8.478230e-001 152 149 130
6.673470e-003 -8.947595e-002 -8.471195e-001 169 172 163
-6.543957e-002 7.061153e-002 -9.710020e-001 161 151 144
-6.543957e-002 7.061153e-002 -9.710020e-001 161 151 144
5.609147e-002 7.951327e-002 -1.032355e+000 106 105 101
6.923142e-002 6.208878e-002 -1.035508e+000 63 65 54
8.675893e-002 6.561446e-002 -1.054032e+000 115 104 91
8.738078e-002 -1.917709e-002 -9.497416e-001 83 115 153
7.171231e-002 -2.542203e-002 -9.530736e-001 174 178 190
1.544268e-002 -3.723464e-002 -9.173938e-001 108 90 69
3.080318e-003 -8.735828e-002 -8.520129e-001 166 170 156
9.018311e-002 8.139766e-002 -1.072204e+000 195 195 183
9.018311e-002 8.139766e-002 -1.072204e+000 195 195 183
6.485744e-002 -2.147272e-002 -9.549848e-001 194 187 176
4.911848e-002 -3.443827e-002 -9.355234e-001 94 94 99
6.245702e-002 -3.485605e-002 -9.389763e-001 208 208 208
9.541647e-002 -3.030107e-002 -9.577882e-001 207 211 211
5.535923e-002 -3.565335e-002 -9.371392e-001 145 144 149
3.400331e-002 -4.167325e-002 -9.187546e-001 150 152 151
5.144320e-002 -5.954458e-002 -9.051980e-001 132 103 73
-2.412380e-002 1.653284e-001 -1.004969e+000 41 40 45
-2.412380e-002 1.653284e-001 -1.004969e+000 41 40 45
-5.728944e-002 6.365505e-002 -9.741373e-001 155 153 141
1.036981e-001 1.230842e-001 -1.124973e+000 67 57 46
1.036981e-001 1.230842e-001 -1.124973e+000 67 57 46
8.782162e-002 8.597924e-002 -1.071846e+000 32 22 11
6.903605e-002 -1.519481e-002 -9.444683e-001 76 102 153
6.905917e-002 -1.541726e-002 -9.435731e-001 76 102 153
8.500478e-002 -1.899805e-002 -9.447123e-001 95 120 160
9.730785e-002 -2.248863e-002 -9.680935e-001 206 207 209
9.730785e-002 -2.248863e-002 -9.680935e-001 206 207 209
1.897189e-002 -5.566647e-002 -8.974334e-001 174 174 172
1.560849e-002 -6.719643e-002 -8.696144e-001 137 139 126
2.120217e-003 -8.522894e-002 -8.463102e-001 160 163 154
6.185496e-002 -1.118067e-003 -9.505778e-001 60 54 60
-4.300428e-002 -7.007800e-002 -8.537458e-001 77 79 78
-4.104285e-002 1.125105e-001 -1.011280e+000 76 74 69
1.625442e-002 -4.841351e-002 -9.114875e-001 212 213 217
1.059825e-002 -7.671836e-002 -8.413383e-001 46 51 46
-3.891944e-004 -8.156826e-002 -8.485249e-001 131 134 127
-1.970643e-002 1.651779e-001 -1.004758e+000 39 41 40
3.829266e-002 1.294628e-001 -1.111963e+000 101 103 98
-2.438196e-002 5.699464e-002 -9.686513e-001 14 14 14
-3.922631e-002 6.948910e-002 -9.850140e-001 11 12 14
9.764895e-002 4.456788e-002 -1.028788e+000 101 104 88
-4.544903e-002 5.902458e-002 -9.895395e-001 134 134 126
5.511355e-002 -4.057870e-003 -9.474826e-001 164 156 88
-7.310363e-002 -2.579409e-002 -8.863870e-001 30 24 18
1.179281e-001 -5.831003e-002 -9.411829e-001 196 201 204
1.135207e-002 -7.707466e-002 -8.605727e-001 120 122 109
-2.676571e-002 1.685761e-001 -9.994749e-001 81 85 84
-2.473938e-002 1.672890e-001 -1.003170e+000 85 87 85
1.331960e-001 1.393036e-001 -1.087792e+000 76 78 62
1.957864e-001 4.007014e-001 -1.544419e+000 54 55 49
4.267851e-001 3.038483e-001 -1.588260e+000 132 129 120
2.419172e-002 7.709270e-002 -1.039560e+000 94 81 73
-2.265240e-002 4.520617e-002 -9.649408e-001 45 45 37
1.160366e-001 4.582927e-003 -1.004819e+000 102 98 88
5.312528e-002 -9.010071e-003 -9.539599e-001 71 59 49
-2.820494e-002 -5.056211e-002 -8.426874e-001 183 184 189
-2.813690e-002 -5.075520e-002 -8.425497e-001 183 184 189
-2.893031e-002 -5.190454e-002 -8.421582e-001 167 168 172
7.698840e-002 -7.555880e-002 -9.063328e-001 107 87 63
-4.384611e-002 7.962940e-002 -9.437610e-001 81 80 78
-4.474670e-002 8.169542e-002 -9.465136e-001 81 80 78
1.660687e-001 4.060612e-001 -1.530812e+000 27 25 15
4.064590e-002 1.146401e-001 -1.086854e+000 108 110 105
8.772956e-002 8.801491e-002 -1.073927e+000 34 26 24
3.669389e-001 2.890082e-001 -1.557816e+000 128 109 83
-2.138378e-002 5.145411e-002 -9.643433e-001 35 35 35
3.226443e-002 -2.941260e-002 -9.310853e-001 207 208 212
-2.668972e-002 -5.219602e-002 -8.420835e-001 183 184 188
-2.692738e-002 -5.204639e-002 -8.424309e-001 183 184 188
-4.313507e-002 -9.832310e-002 -8.266130e-001 109 82 68
-4.229556e-002 -1.075355e-001 -8.173817e-001 85 61 39
1.147098e-003 1.272895e-001 -1.079006e+000 85 84 80
4.005334e-001 3.120507e-001 -1.566705e+000 145 141 124
1.228708e-001 1.075689e-001 -1.113285e+000 136 140 126
3.735557e-001 2.887206e-001 -1.554335e+000 121 103 71
-5.206224e-002 7.044788e-002 -9.810343e-001 135 135 127
1.815069e-001 7.024625e-002 -1.114873e+000 87 76 57
6.820586e-002 -1.830466e-003 -9.430161e-001 143 144 136
6.235036e-002 -8.863612e-003 -9.447392e-001 232 213 117
-6.964424e-002 -1.950850e-002 -8.817199e-001 37 37 37
1.133202e-001 -1.736276e-002 -9.859405e-001 205 209 212
7.053367e-002 -2.518615e-002 -9.530221e-001 180 184 194
9.836523e-002 -3.004064e-002 -9.596092e-001 201 204 210
-2.653145e-002 -5.395199e-002 -8.414661e-001 177 178 182
-2.582881e-002 -5.384761e-002 -8.430524e-001 180 187 180
6.933846e-002 -6.122213e-002 -9.267132e-001 131 107 79
-8.274160e-002 -7.988637e-002 -8.247091e-001 59 41 29
-3.197480e-002 -1.108280e-001 -8.172885e-001 115 87 66
-3.543855e-002 -1.123370e-001 -8.124386e-001 123 92 61
-4.020897e-002 -1.183191e-001 -8.093915e-001 119 93 70
1.801440e-001 4.273819e-001 -1.515279e+000 178 182 159
-5.678946e-003 9.215360e-002 -1.028978e+000 198 202 195
9.062861e-002 8.207770e-002 -1.073337e+000 198 191 198
7.798726e-002 -1.064819e-002 -9.416408e-001 220 205 103
8.488599e-002 -1.979700e-002 -9.567336e-001 192 199 198
7.487177e-002 -2.732864e-002 -9.532376e-001 186 194 207
4.349660e-002 -3.391244e-002 -9.321224e-001 111 112 116
1.173052e-001 -5.642595e-002 -9.417973e-001 140 143 146
1.177651e-001 -5.637050e-002 -9.428059e-001 140 143 146
-7.727505e-002 -8.216432e-002 -8.259690e-001 69 51 39
-5.587891e-002 -1.080783e-001 -8.050414e-001 63 51 38
-5.587891e-002 -1.080783e-001 -8.050414e-001 63 51 38
-4.489505e-002 -1.103751e-001 -8.126979e-001 128 100 73
-4.923213e-002 -1.110331e-001 -8.073911e-001 64 50 37
-5.051220e-002 -1.114569e-001 -8.021908e-001 120 92 70
-3.718650e-002 -1.153877e-001 -8.117134e-001 103 79 51
-3.765021e-002 -1.192876e-001 -8.073661e-001 94 67 46
1.960848e-001 4.763791e-001 -1.488959e+000 186 192 166
-1.523720e-002 1.472131e-001 -1.041224e+000 81 83 79
-9.430093e-002 -5.468556e-002 -8.346726e-001 30 32 31
-3.433188e-002 -6.396070e-002 -8.506573e-001 68 71 65
-3.433188e-002 -6.396070e-002 -8.506573e-001 68 71 65
-5.297140e-002 -1.094736e-001 -8.033872e-001 117 87 61
-5.160302e-002 -1.100123e-001 -8.069058e-001 65 47 37
-3.487152e-002 -1.128684e-001 -8.106413e-001 127 97 67
-2.016802e-002 -1.144219e-001 -8.184747e-001 113 86 57
-5.227848e-002 -1.121259e-001 -8.022404e-001 103 70 51
-2.388821e-002 -1.145729e-001 -7.947462e-001 96 71 47
-3.424235e-002 -1.200654e-001 -8.079388e-001 106 80 55
-4.612794e-002 -1.044389e-001 -8.155084e-001 96 75 54
1.195079e-001 -5.058861e-002 -9.506365e-001 202 206 209
-4.162622e-002 -6.558106e-002 -8.500464e-001 180 183 176
-3.038684e-002 -1.144521e-001 -8.136945e-001 134 105 75
-4.050768e-002 1.153375e-001 -1.018658e+000 78 77 73
1.127864e-001 -5.127555e-002 -9.373350e-001 206 213 215
2.319897e-002 1.132761e-001 -1.040056e+000 114 114 109
-4.722054e-002 -5.856085e-002 -8.528026e-001 17 17 15
-9.624575e-002 -6.743621e-002 -8.355837e-001 100 70 46
-3.516952e-002 -1.069204e-001 -8.185813e-001 133 108 78
-2.501575e-002 1.757334e-001 -1.017139e+000 42 43 45
2.111642e-001 5.391974e-001 -1.463180e+000 187 195 157
-2.709679e-002 1.695244e-001 -1.005856e+000 46 47 42
-2.590452e-002 1.657672e-001 -1.007350e+000 72 72 74
-1.551429e-002 1.612301e-001 -1.006835e+000 45 47 46
-2.341916e-002 1.481463e-001 -9.992300e-001 44 46 43
1.336470e-001 1.611635e-001 -1.172012e+000 113 114 97
1.336470e-001 1.611635e-001 -1.172012e+000 113 114 97
2.757622e-002 4.619120e-002 -1.009472e+000 119 116 113
1.355929e-002 -6.690777e-002 -8.661585e-001 93 93 79
1.951333e-001 5.739233e-001 -1.456168e+000 33 32 27
-2.143295e-002 1.605648e-001 -1.013135e+000 90 91 91
-5.418608e-002 6.239109e-002 -9.653470e-001 160 152 149
4.633815e-002 1.025755e-001 -1.072966e+000 106 107 101
1.140718e-001 1.169037e-001 -1.117901e+000 153 145 116
1.342716e-001 1.304457e-001 -1.101771e+000 86 90 76
1.312275e-001 6.368508e-002 -1.066896e+000 108 102 81
1.138955e-001 -2.275507e-002 -9.755029e-001 203 204 206
1.138955e-001 -2.275507e-002 -9.755029e-001 203 204 206
9.769929e-002 -3.389145e-002 -9.549203e-001 202 205 215
1.054722e-001 -3.244537e-002 -9.609643e-001 152 153 155
1.032343e-001 -3.330172e-002 -9.588377e-001 139 142 147
1.032343e-001 -3.330172e-002 -9.588377e-001 139 142 147
9.162281e-002 -5.513760e-002 -9.172172e-001 212 213 215
1.584025e-002 -7.481907e-002 -8.445286e-001 156 150 137
1.246569e-002 -7.657059e-002 -8.425298e-001 135 134 128
-2.544331e-002 1.755456e-001 -9.995640e-001 106 108 102
1.324268e-001 1.358676e-001 -1.083376e+000 68 68 57
7.248202e-002 -5.071322e-003 -9.440825e-001 223 211 106
9.274301e-002 -1.131807e-002 -9.551539e-001 90 116 134
1.143648e-001 6.632652e-003 -1.005735e+000 160 161 155
1.132992e-001 -4.722488e-003 -9.954238e-001 158 164 158
9.280730e-002 -2.394623e-002 -9.657354e-001 201 205 206
3.114456e-002 -3.877209e-002 -9.209774e-001 200 200 202
2.026482e-002 -6.043533e-002 -8.895615e-001 171 169 170
1.238334e-001 9.920928e-002 -1.095188e+000 78 78 67
1.238334e-001 9.920928e-002 -1.095188e+000 78 78 67
1.288651e-001 6.702490e-002 -1.068842e+000 109 103 79
7.428538e-002 -4.508971e-003 -9.441252e-001 47 49 60
7.428538e-002 -4.508971e-003 -9.441252e-001 47 49 60
1.146713e-001 3.925555e-003 -1.004648e+000 204 203 214
-2.544077e-002 -4.593822e-002 -8.697375e-001 212 214 219
-5.606479e-002 9.100227e-002 -1.003734e+000 14 14 10
1.459625e-001 5.787904e-002 -1.081725e+000 104 92 68
1.459625e-001 5.787904e-002 -1.081725e+000 104 92 68
6.715951e-002 -2.023934e-002 -9.554902e-001 115 104 69
1.829993e-002 -6.819301e-002 -8.683510e-001 110 111 97
9.613048e-002 -8.425326e-002 -9.075877e-001 75 62 46
1.760733e-001 4.066175e-001 -1.484936e+000 175 187 150
1.533242e-001 7.993285e-002 -1.118453e+000 122 107 82
1.189982e-001 -8.143172e-003 -9.938551e-001 104 97 71
-2.629565e-002 -4.497012e-002 -8.713172e-001 212 215 222
1.156273e-001 -2.592840e-003 -9.916058e-001 121 100 72
-2.539953e-002 -4.741915e-002 -8.659157e-001 78 78 70
-2.460192e-002 -5.828511e-002 -8.490090e-001 117 119 105
8.695778e-002 -3.001845e-002 -9.667314e-001 192 195 200
9.375613e-002 -4.919317e-002 -9.373921e-001 205 209 212
-2.787124e-002 1.656867e-001 -1.003588e+000 48 48 46
1.240882e-002 -7.772000e-002 -8.405266e-001 132 135 129
-5.156836e-002 -9.364974e-002 -8.218718e-001 115 84 64
1.437808e-002 -7.376026e-002 -8.432510e-001 126 128 115
5.535815e-003 -9.315788e-002 -8.504758e-001 49 50 52
-2.905163e-002 -5.473429e-002 -8.600574e-001 105 107 93
-2.905163e-002 -5.473429e-002 -8.600574e-001 105 107 93
-3.230273e-002 1.671727e-001 -1.009949e+000 34 36 33
-5.794301e-002 6.222049e-002 -9.907559e-001 141 141 128
-3.836716e-002 2.251141e-002 -9.452734e-001 14 16 11
-1.746872e-002 1.608304e-001 -1.014069e+000 18 20 19
-1.746872e-002 1.608304e-001 -1.014069e+000 18 20 19
4.443552e-002 1.046631e-001 -1.080145e+000 49 50 55
1.399202e-001 1.035748e-001 -1.120512e+000 242 247 243
-2.995456e-002 -6.302554e-002 -8.530463e-001 105 108 99
1.095500e-001 4.301362e-002 -1.032620e+000 106 98 78
7.866405e-002 -7.809437e-003 -9.435311e-001 46 45 51
6.545171e-002 -2.201086e-002 -9.549014e-001 209 208 201
-4.565489e-002 -1.058284e-001 -8.155297e-001 136 113 82
8.283011e-002 -9.944581e-002 -8.825516e-001 120 93 72
-5.221785e-002 2.955765e-002 -8.834683e-001 182 182 184
-5.087557e-002 6.708728e-002 -9.926457e-001 29 25 14
-5.161488e-002 4.083359e-002 -9.637974e-001 179 174 178
-9.721409e-002 -7.474536e-002 -8.259190e-001 87 61 41
-8.670854e-002 -8.161799e-002 -8.237234e-001 104 74 55
-5.484132e-002 8.245936e-002 -9.734864e-001 195 192 186
-5.621634e-002 7.009897e-002 -9.793486e-001 146 146 138
8.275627e-002 8.082560e-002 -1.059589e+000 89 71 54
1.118502e-001 -1.507933e-002 -9.824831e-001 202 206 209
-3.966359e-002 -1.116792e-001 -8.113965e-001 138 110 82
-2.490702e-002 -1.148496e-001 -8.152383e-001 117 91 64
-7.538866e-003 -1.237028e-001 -8.131606e-001 126 101 71
3.015026e-002 -3.905794e-002 -9.278624e-001 154 155 159
4.567763e-002 -6.133989e-002 -8.927943e-001 120 93 64
-5.375169e-002 -9.097501e-002 -8.274019e-001 108 88 66
-4.625398e-002 -1.060643e-001 -8.152004e-001 139 116 83
4.510482e-002 -2.661655e-002 -9.381785e-001 183 184 189
-7.823521e-002 -9.279182e-002 -8.150341e-001 117 90 60
-9.060269e-004 1.993271e-001 -1.202301e+000 100 101 96
-1.056889e-001 -7.589106e-002 -8.221805e-001 70 51 35
5.411321e-002 -6.385328e-002 -8.935454e-001 119 90 60
-2.722749e-002 -9.339521e-002 -8.399555e-001 214 217 222
-2.693314e-002 -5.833326e-002 -8.425965e-001 55 58 49
-2.812753e-002 -5.980950e-002 -8.434295e-001 137 140 131
-2.365961e-002 1.641486e-001 -1.006544e+000 32 33 35
3.738754e-001 2.833421e-001 -1.524925e+000 119 118 114
7.951674e-002 -1.621670e-002 -9.414602e-001 90 110 128
7.533430e-002 -6.120857e-002 -9.183996e-001 137 108 77
-9.089516e-002 -5.149725e-002 -8.516794e-001 114 115 117
-9.073425e-002 -5.083318e-002 -8.546949e-001 170 173 181
8.208789e-002 -9.450811e-002 -8.736297e-001 203 197 198
8.208789e-002 -9.450811e-002 -8.736297e-001 203 197 198
-4.609389e-002 8.578342e-002 -9.476653e-001 28 29 24
1.151386e-001 7.438736e-002 -1.078402e+000 109 103 84
6.185094e-002 7.235215e-005 -9.435828e-001 134 137 129
-2.768210e-002 -5.030619e-002 -8.432292e-001 110 110 118
-2.915050e-002 -5.171198e-002 -8.424171e-001 167 168 172
-4.367958e-002 -9.669638e-002 -8.250622e-001 70 51 37
1.931687e-001 4.416122e-001 -1.512888e+000 176 180 157
3.456869e-001 3.162800e-001 -1.560759e+000 117 106 90
3.708577e-001 2.740413e-001 -1.530702e+000 138 125 101
9.313337e-002 8.458625e-002 -1.073865e+000 130 124 100
6.470863e-002 -6.208637e-002 -9.124769e-001 126 100 73
8.168297e-002 -6.469036e-002 -9.175438e-001 128 111 82
-9.287884e-002 -6.432394e-002 -8.369077e-001 55 38 25
-2.371952e-002 -7.380224e-002 -8.460928e-001 177 180 172
7.794817e-002 -1.026203e-001 -8.767235e-001 123 99 74
3.732579e-001 2.935468e-001 -1.548757e+000 145 147 127
1.642847e-001 9.125911e-002 -1.117018e+000 185 185 177
1.642847e-001 9.125911e-002 -1.117018e+000 185 185 177
1.227279e-001 -6.670901e-002 -9.326848e-001 196 199 203
1.287164e-002 -7.708422e-002 -8.597304e-001 148 146 133
9.510577e-003 -8.362199e-002 -8.509938e-001 149 153 138
8.305333e-002 -9.718515e-002 -8.844998e-001 72 62 62
-5.341052e-002 -1.096709e-001 -8.074325e-001 67 50 40
4.044591e-001 2.888617e-001 -1.568353e+000 126 123 104
-2.688475e-002 -5.604486e-002 -8.443860e-001 119 121 108
-9.417303e-002 -6.249465e-002 -8.386371e-001 57 44 36
7.303053e-002 -1.059267e-001 -8.706605e-001 96 77 66
7.370385e-002 -1.139568e-001 -8.635347e-001 102 77 57
7.436681e-002 -1.254026e-001 -8.493332e-001 86 68 42
6.623608e-002 1.164689e-001 -1.014126e+000 125 126 121
4.179442e-001 3.351722e-001 -1.595071e+000 170 171 153
3.602622e-001 3.028694e-001 -1.552097e+000 146 145 127
-2.600767e-002 -5.788109e-002 -8.501862e-001 115 117 104
1.094745e-002 -7.830147e-002 -8.576579e-001 72 76 61
-5.510269e-002 -8.930345e-002 -8.239805e-001 96 76 69
-5.020900e-002 -9.245297e-002 -8.262729e-001 108 81 64
-3.394612e-002 -1.039357e-001 -8.212670e-001 115 91 71
6.213044e-002 -1.185656e-001 -8.494044e-001 107 85 62
-3.905252e-002 -1.126732e-001 -8.105917e-001 60 46 37
-3.763568e-002 -1.144750e-001 -8.098724e-001 110 82 61
-3.964733e-002 -1.146293e-001 -8.088664e-001 60 48 34
-3.978889e-002 -1.167896e-001 -8.064255e-001 122 96 69
5.150898e-003 -7.408710e-002 -8.430846e-001 155 158 151
-5.332194e-002 -7.852287e-002 -8.403868e-001 215 218 223
-5.535420e-002 -9.178694e-002 -8.260413e-001 65 52 43
9.857399e-002 -1.048208e-001 -8.839754e-001 82 66 45
9.857399e-002 -1.048208e-001 -8.839754e-001 82 66 45
9.481947e-002 -1.060488e-001 -8.805309e-001 106 89 63
-5.469364e-002 -9.974782e-002 -8.182806e-001 128 102 78
-3.481097e-002 -1.086640e-001 -8.178621e-001 128 102 75
-3.386443e-002 -1.174751e-001 -8.081543e-001 105 75 56
-2.315778e-002 -1.193675e-001 -8.111983e-001 111 79 58
1.110051e-001 -8.524115e-002 -9.146094e-001 123 104 74
8.214940e-002 -9.453971e-002 -8.806035e-001 209 212 211
-6.101044e-002 -9.085647e-002 -8.224738e-001 108 82 65
-5.596870e-002 -9.359447e-002 -8.240388e-001 105 78 61
-5.713163e-002 -1.078236e-001 -8.089620e-001 118 91 64
-4.566676e-002 -1.111074e-001 -8.088949e-001 116 89 62
-5.365318e-002 -1.116184e-001 -8.059005e-001 117 87 61
1.143261e-002 1.292299e-001 -1.043147e+000 89 91 88
7.973960e-002 -1.101652e-001 -8.675538e-001 79 63 47
2.357716e-002 7.552057e-002 -1.034579e+000 42 40 35
-2.583661e-002 1.635544e-001 -1.003684e+000 27 26 32
4.372998e-004 -1.908154e-002 -8.539683e-001 109 109 98
-1.675154e-002 1.469950e-001 -9.765093e-001 33 35 30
-3.147792e-002 1.691477e-001 -1.004787e+000 33 33 31
9.162167e-002 4.324290e-002 -1.036616e+000 141 142 147
4.698723e-002 6.756564e-004 -9.713353e-001 204 205 207
7.587156e-002 -1.582521e-002 -9.437321e-001 182 168 54
5.873956e-002 -1.379490e-002 -9.492767e-001 62 54 23
-2.900195e-002 -4.941937e-002 -8.453641e-001 111 112 116
-2.214371e-002 8.032376e-002 -1.008107e+000 26 27 24
9.549850e-002 3.932369e-002 -1.033046e+000 127 132 143
-3.057277e-002 -4.990027e-002 -8.449797e-001 132 133 135
4.464859e-002 -2.308876e-002 -9.437471e-001 213 214 218
5.225702e-002 -2.433838e-002 -9.461341e-001 211 210 214
6.309310e-002 -2.601965e-002 -9.504700e-001 210 209 207
-1.064557e-002 7.384849e-002 -1.017282e+000 55 51 48
4.374557e-002 1.967719e-002 -9.879825e-001 224 220 213
-2.643526e-002 -5.463807e-002 -8.402830e-001 132 133 135
-2.256991e-002 -5.643778e-002 -8.463890e-001 92 93 79
-2.430021e-002 -5.541886e-002 -8.676826e-001 137 137 125
-9.246201e-003 -8.181980e-002 -8.348417e-001 94 98 101
8.470917e-002 -9.476320e-002 -8.802880e-001 101 85 103
6.662066e-002 -3.528905e-002 -9.411722e-001 212 213 215
-9.129758e-002 -6.876740e-002 -8.420475e-001 119 89 61
-4.185672e-002 -9.673839e-002 -8.248113e-001 82 59 53
9.393974e-002 -8.814867e-002 -8.914855e-001 82 65 49
7.884715e-002 -1.025620e-001 -8.918626e-001 131 100 80
-4.216567e-002 7.959670e-002 -9.422987e-001 37 36 34
9.731222e-002 3.744233e-002 -1.029288e+000 63 59 60
-7.296150e-002 -2.763280e-002 -8.698021e-001 43 43 45
-4.159639e-002 -1.006421e-001 -8.231288e-001 96 73 57
1.783824e-002 -6.233601e-002 -8.777980e-001 117 120 103
1.150849e-001 -3.943552e-003 -9.877166e-001 121 100 72
8.827569e-002 -9.755665e-002 -8.889163e-001 115 91 65
-2.961573e-002 1.673303e-001 -1.002830e+000 78 80 77
-1.923382e-002 1.641036e-001 -1.003395e+000 21 23 22
-1.932837e-002 1.642709e-001 -1.003561e+000 21 23 22
-2.742977e-002 1.659157e-001 -1.006429e+000 6 8 5
-2.305480e-002 1.628987e-001 -1.005347e+000 14 15 18
-1.898969e-002 1.622457e-001 -1.006424e+000 24 25 27
-1.395245e-002 1.600728e-001 -1.006549e+000 69 71 70
-5.231331e-002 8.494539e-002 -9.746078e-001 54 45 38
-1.107367e-002 7.589207e-002 -1.006247e+000 50 50 50
-5.018958e-002 6.416095e-002 -9.839002e-001 82 76 64
3.023372e-002 4.932195e-002 -1.011682e+000 202 201 197
4.382272e-002 -1.657263e-002 -9.528732e-001 209 210 212
7.443465e-002 -2.254317e-002 -9.493438e-001 84 104 100
-7.860823e-002 -5.521508e-002 -8.422413e-001 125 132 129
1.954330e-002 -6.086306e-002 -8.862675e-001 57 58 53
-2.815689e-002 1.592522e-001 -1.009630e+000 46 48 45
7.256259e-002 -6.116467e-003 -9.446145e-001 62 62 25
-2.896845e-002 1.702352e-001 -1.000687e+000 26 28 25
-1.279954e-002 9.371522e-002 -1.022687e+000 57 57 55
-4.646324e-003 7.938913e-002 -1.016652e+000 23 19 16
4.469429e-002 3.870838e-002 -1.010689e+000 203 189 174
3.717111e-002 3.041600e-002 -9.977854e-001 199 178 164
7.013825e-002 -1.579313e-002 -9.464240e-001 213 189 109
-8.678155e-002 -5.149808e-002 -8.370621e-001 43 43 43
7.044618e-002 1.186039e-001 -1.013781e+000 26 26 28
3.672795e-002 5.775007e-002 -1.015382e+000 112 96 80
2.915015e-002 7.937178e-002 -1.071340e+000 116 104 88
-2.701164e-002 -5.196405e-002 -8.425962e-001 180 181 183
3.224393e-002 -2.952493e-002 -9.307371e-001 209 210 214
3.451115e-002 -3.006190e-002 -9.312502e-001 211 212 214
3.674741e-002 -3.052868e-002 -9.309192e-001 209 210 212
-3.540822e-002 -1.016340e-001 -8.230172e-001 122 94 72
-1.316261e-002 1.221944e-001 -1.033627e+000 65 67 64
-5.350505e-002 8.334620e-002 -9.835799e-001 41 33 22
-5.350505e-002 8.334620e-002 -9.835799e-001 41 33 22
-2.310968e-002 8.578718e-002 -1.014694e+000 149 150 154
-1.575445e-002 5.436781e-002 -9.994606e-001 52 40 28
9.140883e-002 -4.698668e-002 -9.385179e-001 205 208 213
8.125890e-002 -6.719881e-002 -9.108976e-001 112 86 55
-9.730142e-002 -8.637324e-002 -8.113382e-001 97 68 44
-4.792257e-002 -9.409623e-002 -8.263305e-001 104 85 59
-4.242958e-002 -1.013770e-001 -8.223184e-001 123 97 74
-4.276117e-002 -1.155595e-001 -8.058050e-001 134 106 80
-2.624467e-002 -1.267701e-001 -8.017514e-001 110 90 68
-1.747276e-003 -1.303559e-001 -8.088637e-001 108 79 55
-1.956395e-003 -1.316288e-001 -8.076258e-001 112 86 63
-2.352180e-003 1.136453e-001 -1.049312e+000 60 62 58
1.754822e-002 4.507293e-002 -1.004793e+000 50 46 44
3.342924e-002 -1.129553e-003 -9.612049e-001 202 149 119
6.043278e-002 -1.919541e-002 -9.562949e-001 195 195 183
9.586633e-002 -5.111469e-002 -9.409917e-001 135 139 142
-3.999696e-002 -9.995322e-002 -8.241964e-001 118 94 71
8.171772e-002 -1.023996e-001 -8.781662e-001 101 74 47
-4.267985e-002 -1.282238e-001 -7.925250e-001 101 80 59
-7.874052e-003 -1.279158e-001 -8.089903e-001 101 74 47
2.930812e-005 5.185264e-002 -9.990280e-001 201 201 194
-2.129423e-002 -7.359689e-002 -8.535344e-001 163 167 153
-1.116607e-001 -8.678240e-002 -8.065261e-001 108 83 54
-6.632442e-002 -1.018872e-001 -8.090757e-001 58 47 40
-6.205653e-002 -1.100906e-001 -8.037603e-001 112 82 58
-4.327826e-002 -1.200217e-001 -8.014573e-001 89 61 47
-2.428923e-002 -1.263353e-001 -8.034040e-001 81 60 38
-2.657703e-002 -1.324384e-001 -7.967308e-001 92 64 50
-1.505467e-002 -1.313942e-001 -8.017565e-001 70 54 39
-2.284334e-002 1.595186e-001 -1.006805e+000 82 84 81
1.259509e-001 1.038189e-001 -1.113694e+000 169 182 162
-8.400061e-002 -6.997556e-002 -8.349921e-001 124 89 59
-6.044152e-002 -1.091502e-001 -8.052235e-001 130 106 74
-3.873681e-002 -1.228679e-001 -8.003126e-001 109 84 61
-3.024970e-002 -1.245190e-001 -8.025968e-001 79 60 38
-1.122571e-002 -1.244098e-001 -8.111076e-001 119 90 58
-2.658795e-002 -1.277228e-001 -8.000295e-001 75 54 37
-1.554493e-002 -1.286291e-001 -8.042132e-001 79 57 43
-3.114174e-002 -1.303384e-001 -7.954188e-001 87 61 42
-1.822735e-002 -1.319783e-001 -7.998956e-001 94 73 54
-2.807385e-002 -1.328710e-001 -7.933831e-001 98 70 48
-3.891572e-004 8.327548e-002 -1.029224e+000 97 81 56
5.726594e-002 -2.117549e-002 -9.525077e-001 185 184 180
-6.178902e-002 -8.868635e-002 -8.258333e-001 78 60 47
-9.538110e-002 -9.570034e-002 -8.045467e-001 124 94 60
-6.418279e-002 -1.073464e-001 -8.042401e-001 129 102 73
-7.488358e-003 -1.259504e-001 -8.113058e-001 133 102 73
-1.227560e-002 -1.297880e-001 -8.049895e-001 79 57 43
-8.864084e-003 -1.305582e-001 -8.054493e-001 76 53 38
-1.033700e-001 -8.182987e-002 -8.154470e-001 103 76 50
-8.442719e-002 -5.312845e-002 -8.456513e-001 89 89 87
4.027132e-002 -1.359229e-002 -9.532713e-001 210 214 215
2.041638e-002 -4.090751e-002 -9.157697e-001 209 210 212
4.869208e-002 -2.851135e-002 -9.416780e-001 211 216 222
4.869208e-002 -2.851135e-002 -9.416780e-001 211 216 222
6.220984e-002 -2.216510e-002 -9.544837e-001 202 202 189
-4.510380e-002 2.185056e-001 -1.045098e+000 25 27 27
-3.118149e-003 1.401696e-001 -9.700537e-001 29 34 38
-1.502199e-002 1.610935e-001 -1.011017e+000 16 18 15
-2.671029e-002 -5.846574e-002 -8.422852e-001 37 41 27
3.253054e-002 -3.820979e-003 -9.591226e-001 221 199 175
4.356324e-002 -1.396606e-002 -9.553322e-001 211 219 209
3.799846e-002 -3.466086e-002 -9.299626e-001 191 192 197
1.008702e-002 -6.857084e-002 -8.633946e-001 71 69 56
-1.616696e-002 1.633328e-001 -1.004321e+000 13 15 11
1.460153e-002 8.605057e-002 -1.053234e+000 95 81 73
1.078506e-002 -3.050078e-003 -9.503043e-001 108 87 60
3.075405e-002 -1.274948e-002 -9.479844e-001 213 217 218
5.346317e-002 -2.406467e-002 -9.480867e-001 204 208 209
4.081730e-002 -4.183930e-002 -9.235602e-001 153 154 156
6.237275e-002 -3.011142e-002 -9.479443e-001 206 208 207
6.237275e-002 -3.011142e-002 -9.479443e-001 206 208 207
4.903957e-002 -4.196180e-002 -9.276787e-001 212 216 217
6.386836e-002 -4.614070e-002 -9.292816e-001 148 152 150
-1.839464e-002 6.924783e-002 -9.973943e-001 6 8 5
6.504905e-002 -2.206490e-003 -9.435105e-001 139 138 125
5.904634e-002 -2.513534e-002 -9.502182e-001 204 206 203
7.158085e-002 -4.588739e-002 -9.341702e-001 204 208 209
6.757097e-002 -6.166870e-002 -9.139063e-001 127 108 72
-4.422641e-003 8.243618e-002 -1.022867e+000 77 67 49
1.614000e-002 7.445366e-002 -1.043302e+000 111 95 77
1.407871e-002 2.325192e-002 -9.813777e-001 201 204 211
2.841529e-002 -3.547447e-002 -9.234540e-001 210 211 215
6.075357e-002 -2.558740e-002 -9.501410e-001 206 210 207
3.874647e-002 -2.313927e-002 -9.408023e-001 209 213 214
6.851725e-002 -2.614903e-002 -9.543975e-001 190 198 201
6.749575e-002 -3.794867e-002 -9.402706e-001 141 145 148
3.382627e-002 -1.574380e-003 -9.604221e-001 204 156 142
5.205321e-002 -3.520327e-002 -9.358142e-001 126 129 138
6.754311e-002 -3.796921e-002 -9.401624e-001 143 147 150
6.240184e-002 -3.619815e-003 -9.437545e-001 48 51 50
1.668099e-002 -4.345188e-002 -9.077493e-001 117 86 63
1.668099e-002 -4.345188e-002 -9.077493e-001 117 86 63
-3.527941e-002 -1.066773e-001 -8.182060e-001 140 117 85
-1.938059e-002 1.595937e-001 -9.999629e-001 51 52 54
-1.035912e-001 -7.314511e-002 -7.903381e-001 187 189 188
-2.746060e-002 1.664080e-001 -1.004358e+000 71 73 75
-1.552799e-002 1.612148e-001 -1.006793e+000 28 29 31
7.128222e-002 6.792123e-002 -1.049046e+000 58 55 36
1.310755e-002 3.928721e-002 -9.867542e-001 196 196 196
-2.800782e-002 -5.188024e-002 -8.420915e-001 114 118 121
-2.308787e-002 1.664489e-001 -1.003718e+000 39 40 40
1.276321e-001 1.297056e-001 -1.114643e+000 179 180 166
1.974110e-001 3.687960e-001 -1.542981e+000 141 142 136
1.261263e-001 1.151410e-001 -1.120789e+000 84 84 76
-1.654966e-002 7.554171e-002 -1.003848e+000 29 31 27
6.968159e-002 8.240555e-002 -1.061162e+000 29 31 26
-4.077182e-002 6.625059e-002 -9.851190e-001 33 28 24
-1.210819e-002 6.969341e-002 -1.013492e+000 29 25 22
1.000491e-001 3.543452e-002 -1.028995e+000 132 128 109
6.183197e-002 1.493217e-004 -9.441373e-001 136 135 136
7.686759e-002 -8.628121e-003 -9.431352e-001 39 35 23
1.186620e-001 -5.769914e-002 -9.406162e-001 164 167 172
6.450817e-002 8.167488e-002 -9.218894e-001 113 113 114
-3.099445e-002 1.687340e-001 -9.989401e-001 93 94 96
-4.371667e-002 8.393547e-002 -9.446621e-001 88 89 84
3.627784e-001 3.092520e-001 -1.548505e+000 129 129 120
1.123142e-001 1.235774e-001 -1.123117e+000 69 62 44
8.480702e-002 9.592613e-002 -1.087655e+000 123 120 103
-5.007794e-002 6.982592e-002 -9.831898e-001 171 171 163
1.568385e-001 9.029232e-002 -1.127916e+000 130 120 95
-6.559841e-003 2.207112e-002 -9.429663e-001 81 72 59
1.789440e-002 2.682551e-002 -9.768427e-001 68 68 68
1.691996e-002 2.485715e-002 -9.829084e-001 176 178 177
5.571791e-002 5.428050e-004 -9.501542e-001 48 47 26
2.068511e-002 2.007796e-002 -9.791733e-001 214 193 179
1.550184e-001 -1.722849e-002 -1.010894e+000 95 77 56
4.084169e-002 -2.238182e-002 -9.427420e-001 215 216 221
-6.835779e-002 -1.631817e-002 -9.007068e-001 37 24 17
-6.899396e-002 -1.918789e-002 -8.950070e-001 37 24 15
-6.021056e-002 -2.273403e-002 -8.952215e-001 91 77 67
5.078561e-002 -5.527729e-002 -9.330563e-001 137 115 88
6.161869e-002 -6.753459e-002 -9.057555e-001 101 74 55
7.692349e-002 -1.028541e-001 -8.754946e-001 92 80 84
6.828305e-002 9.500446e-002 -9.492217e-001 32 31 29
1.728698e-001 1.275804e-001 -1.095000e+000 139 140 122
1.592377e-001 1.200485e-001 -1.105496e+000 226 230 230
9.648640e-002 1.766740e-001 -1.182432e+000 124 116 102
5.611427e-002 1.054913e-001 -1.077534e+000 80 80 78
1.809614e-001 7.505934e-002 -1.106889e+000 107 101 90
2.423122e-002 4.617697e-002 -1.008178e+000 74 76 73
-3.083032e-002 3.490376e-002 -9.613538e-001 170 172 167
8.344814e-003 2.859996e-002 -9.836601e-001 94 88 74
4.770724e-002 2.549804e-002 -9.971343e-001 215 213 208
7.031984e-002 -1.686588e-002 -9.443482e-001 202 189 91
-2.991387e-002 -5.212152e-002 -8.419854e-001 140 144 147
-2.009382e-002 -5.076587e-002 -8.724146e-001 132 135 128
6.453511e-005 -5.898307e-002 -8.741756e-001 140 143 136
8.614562e-002 -9.506208e-002 -8.882139e-001 108 89 89
8.314350e-002 1.002244e-001 -1.089130e+000 55 49 50
1.154135e-001 9.952888e-002 -1.103004e+000 140 125 110
1.842598e-001 7.063827e-002 -1.110353e+000 56 54 28
1.471429e-002 6.366589e-002 -1.018432e+000 112 97 89
4.321076e-002 4.346262e-002 -1.015449e+000 93 96 97
4.321076e-002 4.346262e-002 -1.015449e+000 93 96 97
4.713855e-002 2.823971e-002 -9.979295e-001 159 145 129
-1.509435e-003 2.944408e-002 -9.849334e-001 116 100 85
7.205500e-002 -8.086340e-003 -9.425998e-001 76 75 73
6.884057e-002 -1.186822e-002 -9.450498e-001 235 220 135
4.191930e-002 -1.862858e-002 -9.468781e-001 207 208 213
-5.926245e-002 -2.059966e-002 -8.986101e-001 81 56 36
-7.043414e-002 -2.586026e-002 -8.869550e-001 70 53 40
8.780242e-002 -6.803707e-002 -9.160165e-001 137 113 87
1.209851e-001 -8.287426e-002 -9.170871e-001 125 107 83
-3.981687e-002 -1.012901e-001 -8.230754e-001 81 60 44
1.753074e-001 4.122410e-001 -1.512445e+000 183 187 164
1.447963e-001 1.290082e-001 -1.097665e+000 175 177 155
6.689381e-002 1.394468e-001 -1.126514e+000 62 50 38
-2.391033e-002 4.389711e-002 -9.596694e-001 200 199 194
-3.215457e-002 5.100869e-002 -9.723268e-001 29 27 28
-2.958309e-002 4.611205e-002 -9.675565e-001 49 48 43
1.591684e-002 3.194146e-002 -9.850369e-001 43 43 41
1.279408e-001 -4.100726e-002 -9.617029e-001 128 110 86
5.214750e-002 -3.553439e-002 -9.344415e-001 135 134 139
5.214750e-002 -3.553439e-002 -9.344415e-001 135 134 139
6.708141e-002 -3.828081e-002 -9.384523e-001 129 133 136
8.919522e-002 -9.147217e-002 -8.951646e-001 121 99 76
-8.621807e-002 -6.791937e-002 -8.347645e-001 103 77 54
7.956519e-002 -1.012408e-001 -8.788597e-001 95 72 56
-7.013356e-002 -8.596287e-002 -8.255605e-001 93 74 63
-4.396865e-002 -1.007489e-001 -8.224105e-001 110 84 67
1.460878e-001 9.797608e-002 -1.099496e+000 162 167 144
1.697940e-001 6.580188e-002 -1.113540e+000 105 95 70
5.068576e-003 4.505208e-002 -9.933021e-001 213 214 209
1.689627e-001 2.108818e-002 -1.056946e+000 123 110 91
9.183122e-002 -1.181327e-002 -9.562737e-001 88 115 163
5.439193e-002 -1.115785e-002 -9.610688e-001 137 134 129
3.801163e-002 -3.315086e-002 -9.298702e-001 122 123 128
8.818329e-002 -9.752600e-002 -8.857398e-001 122 97 65
5.956895e-002 9.871649e-002 -1.072104e+000 16 15 11
5.545261e-001 2.212502e-001 -1.671372e+000 101 86 55
7.175589e-001 3.554825e-001 -1.904074e+000 137 126 94
-5.448534e-002 -9.996603e-002 -8.193896e-001 127 101 78
1.893629e-001 4.100227e-001 -1.506877e+000 190 193 172
1.157263e-001 -6.305876e-002 -9.305930e-001 204 205 209
1.157263e-001 -6.305876e-002 -9.305930e-001 204 205 209
-4.712201e-002 -5.914099e-002 -8.523153e-001 21 21 21
-5.350959e-002 -4.171982e-002 -8.677985e-001 212 215 224
-6.370035e-002 -7.008506e-002 -8.421892e-001 216 219 228
-2.981621e-002 1.676916e-001 -1.003053e+000 73 74 75
9.803351e-003 9.404810e-003 -9.350538e-001 187 187 187
6.233793e-003 1.882093e-002 -9.705848e-001 184 188 188
-1.209591e-001 -2.739386e-003 -1.004626e+000 94 71 50
7.802869e-002 -6.361150e-003 -9.430419e-001 50 57 62
7.605593e-002 -1.229729e-002 -9.419136e-001 187 165 79
1.093898e-001 -4.527530e-002 -9.507101e-001 213 214 219
8.575389e-002 -6.475328e-002 -9.192223e-001 116 95 74
-1.766377e-003 -8.653229e-002 -8.480463e-001 121 122 116
-2.026465e-002 1.641392e-001 -1.005462e+000 9 13 14
6.326362e-002 -1.764019e-003 -9.417702e-001 143 148 142
-4.092005e-002 3.714336e-002 -9.633388e-001 181 182 177
-6.725854e-002 -1.736108e-002 -8.969463e-001 46 29 20
-7.420510e-002 -1.506932e-002 -9.117280e-001 73 58 47
7.550977e-002 -9.469638e-003 -9.416706e-001 37 34 24
6.819538e-002 -1.951160e-002 -9.517870e-001 169 157 89
6.330317e-002 -3.751178e-002 -9.367972e-001 131 132 137
6.330317e-002 -3.751178e-002 -9.367972e-001 131 132 137
-5.895298e-002 -2.692097e-002 -8.431158e-001 196 197 202
6.229303e-002 -4.094024e-003 -9.425942e-001 39 42 50
4.959137e-002 -1.020494e-001 -7.248926e-001 0 255 0
3.600455e-002 -8.756966e-002 -7.707809e-001 255 255 0
7.006119e-002 -9.451597e-002 -7.494512e-001 255 0 0
4.856349e-002 -7.539668e-002 -7.903450e-001 255 255 0
7.285217e-002 -9.600384e-002 -7.105713e-001 0 255 0
5.066393e-002 -8.458686e-002 -7.538995e-001 255 255 0
1.007338e-001 -8.993165e-002 -7.378356e-001 255 0 0
6.577452e-002 -8.159667e-002 -7.725974e-001 255 255 0
2.603611e-002 -8.517804e-002 -7.205197e-001 0 255 0
1.999824e-002 -7.172153e-002 -7.682949e-001 255 255 0
1.373662e-001 -8.127315e-002 -7.789147e-001 255 0 0
9.562486e-002 -6.446595e-002 -8.007133e-001 255 255 0
-1.580017e-002 -6.966665e-002 -7.201491e-001 0 255 0
-9.810943e-003 -5.895691e-002 -7.686200e-001 255 255 0
2.647568e-002 -1.211973e-001 -7.499893e-001 255 0 0
2.659935e-002 -9.104845e-002 -7.898770e-001 255 255 0
4.477936e-002 -5.060183e-002 -7.237625e-001 0 255 0
3.398777e-002 -4.588231e-002 -7.723553e-001 255 255 0
