ply
format ascii 1.0
element face 0
property list uchar int vertex_indices
element vertex 126
property float x
property float y
property float z
property uchar diffuse_red
property uchar diffuse_green
property uchar diffuse_blue
end_header
-2.610236e-003 1.386056e-001 -9.821903e-001 39 43 46
5.693152e-004 1.349325e-001 -9.829936e-001 33 33 33
-7.545057e-003 1.333202e-001 -9.785073e-001 35 37 36
-1.242107e-002 1.306367e-001 -9.761454e-001 77 78 82
-1.242107e-002 1.306367e-001 -9.761454e-001 77 78 82
1.094695e-003 1.300566e-001 -9.838924e-001 19 20 23
1.489994e-001 9.435927e-002 -1.064388e+000 68 70 57
1.319796e-001 7.998340e-002 -1.059383e+000 156 159 150
-2.753887e-002 6.378696e-002 -9.697732e-001 74 73 53
1.048620e-001 4.551705e-002 -1.034576e+000 184 185 139
6.750004e-002 1.110809e-002 -1.013901e+000 103 104 109
5.069126e-002 5.820841e-003 -1.005964e+000 208 209 213
1.170680e-001 3.136269e-003 -1.042604e+000 212 213 217
-4.706464e-003 1.328751e-001 -9.802109e-001 39 41 40
-3.374544e-003 1.318393e-001 -9.811110e-001 78 79 81
-3.374544e-003 1.318393e-001 -9.811110e-001 78 79 81
-1.126903e-002 1.305347e-001 -9.768401e-001 23 24 28
-1.179804e-003 1.275030e-001 -9.832991e-001 83 85 84
-8.406823e-003 1.240999e-001 -9.808052e-001 35 37 34
1.277272e-001 1.146318e-001 -1.053989e+000 176 178 164
1.578574e-001 9.967013e-002 -1.069609e+000 69 81 65
1.126064e-001 8.671350e-002 -1.050208e+000 72 66 50
1.578468e-001 8.169762e-002 -1.071619e+000 81 76 60
8.388719e-002 7.549424e-002 -1.033255e+000 177 179 171
1.055278e-001 7.632715e-002 -1.044855e+000 130 124 105
-2.461949e-002 5.941696e-002 -9.728253e-001 119 119 107
9.339549e-002 5.215036e-002 -1.028370e+000 149 145 136
1.118467e-001 4.419356e-002 -1.038168e+000 197 179 84
1.608562e-001 1.976682e-002 -1.067387e+000 149 153 156
1.189699e-001 2.915043e-003 -1.043139e+000 217 220 224
-1.184146e-002 1.343563e-001 -9.758808e-001 86 88 85
-1.114902e-002 1.327465e-001 -9.763969e-001 25 27 26
-2.058434e-003 1.329326e-001 -9.817340e-001 23 25 25
-2.794430e-004 1.322625e-001 -9.827039e-001 78 82 81
-1.610999e-003 1.310428e-001 -9.818769e-001 16 19 21
-1.610999e-003 1.310428e-001 -9.818769e-001 16 19 21
-6.078917e-004 1.289048e-001 -9.825791e-001 79 80 82
1.539830e-001 1.039143e-001 -1.067481e+000 102 99 85
8.159540e-002 9.500314e-002 -1.035695e+000 19 20 16
1.390850e-001 9.019817e-002 -1.059849e+000 138 141 122
6.574497e-003 7.237951e-002 -9.900951e-001 24 24 24
9.918272e-002 7.683219e-002 -1.041604e+000 100 101 85
4.623475e-002 7.203664e-002 -1.010717e+000 66 56 50
6.317665e-002 7.184129e-002 -1.022455e+000 84 75 63
4.380004e-002 6.899999e-002 -1.012253e+000 93 80 72
1.129997e-001 3.776988e-002 -1.039508e+000 194 194 106
8.705842e-002 3.223305e-002 -1.028206e+000 161 151 68
1.039041e-001 2.742271e-002 -1.036470e+000 145 150 89
-1.110747e-002 1.288004e-001 -9.770412e-001 78 79 81
-1.331109e-003 1.284694e-001 -9.823687e-001 78 80 80
-1.331109e-003 1.284694e-001 -9.823687e-001 78 80 80
1.144244e-001 1.026591e-001 -1.057306e+000 57 60 43
1.144244e-001 1.026591e-001 -1.057306e+000 57 60 43
1.542401e-001 1.020256e-001 -1.067994e+000 222 224 217
1.133174e-001 1.005126e-001 -1.057363e+000 168 170 155
9.194055e-002 9.233690e-002 -1.046390e+000 80 65 51
3.114893e-002 8.322581e-002 -1.010844e+000 89 88 84
1.352329e-001 8.621523e-002 -1.058574e+000 157 163 136
9.701780e-002 7.726596e-002 -1.040244e+000 91 91 81
1.376122e-001 7.832067e-002 -1.062848e+000 134 144 134
9.831520e-002 7.476365e-002 -1.040556e+000 29 30 33
-1.755394e-002 6.329497e-002 -9.742135e-001 125 121 109
1.043159e-001 4.537933e-002 -1.034556e+000 211 212 136
1.161427e-001 3.408231e-002 -1.040344e+000 80 104 152
8.997084e-002 3.024649e-002 -1.029648e+000 182 164 89
8.413380e-002 2.667147e-002 -1.027322e+000 192 192 190
1.055966e-001 9.779189e-002 -1.054315e+000 20 22 13
1.535824e-001 9.886978e-002 -1.066556e+000 61 61 59
1.481284e-001 9.505959e-002 -1.063983e+000 66 67 58
1.207470e-001 8.701335e-002 -1.054144e+000 135 130 110
1.378500e-001 8.388804e-002 -1.061395e+000 63 65 52
1.451555e-001 8.352632e-002 -1.065252e+000 81 81 80
1.451555e-001 8.352632e-002 -1.065252e+000 81 81 80
1.157723e-001 8.033841e-002 -1.052206e+000 96 82 58
-4.142861e-002 6.820777e-002 -9.603693e-001 130 130 122
8.141980e-002 7.031820e-002 -1.032964e+000 89 81 69
1.459995e-001 6.780149e-002 -1.065916e+000 82 66 50
1.048938e-001 4.770703e-002 -1.034465e+000 31 27 37
1.093185e-001 4.458746e-002 -1.037050e+000 207 206 118
1.058483e-001 3.993497e-002 -1.035659e+000 223 209 106
1.147321e-001 3.627306e-002 -1.039964e+000 62 87 124
1.053938e-001 3.524872e-002 -1.035987e+000 211 196 102
1.023323e-001 2.869967e-002 -1.035226e+000 174 165 72
1.023323e-001 2.869967e-002 -1.035226e+000 174 165 72
6.265259e-002 2.051378e-002 -1.014542e+000 216 217 221
1.494001e-001 2.118332e-002 -1.061043e+000 201 204 210
8.378598e-002 1.127559e-002 -1.024825e+000 151 152 154
8.378598e-002 1.127559e-002 -1.024825e+000 151 152 154
1.013641e-001 1.067665e-002 -1.034744e+000 128 128 130
1.013641e-001 1.067665e-002 -1.034744e+000 128 128 130
1.074668e-001 1.038342e-002 -1.038006e+000 120 121 125
1.074668e-001 1.038342e-002 -1.038006e+000 120 121 125
1.377893e-001 -1.775244e-002 -1.051583e+000 115 94 65
1.731458e-001 -2.417492e-002 -1.071703e+000 131 115 82
-9.749329e-003 1.355038e-001 -9.778278e-001 84 86 81
-9.448125e-003 1.283383e-001 -9.797722e-001 82 83 85
-2.467942e-003 1.281396e-001 -9.821754e-001 79 81 80
4.802080e-002 8.327126e-002 -1.018785e+000 112 111 107
1.270589e-001 7.791242e-002 -1.056657e+000 118 112 85
4.697530e-002 1.282215e-002 -1.005103e+000 94 95 99
8.890693e-002 1.109130e-002 -1.027694e+000 124 126 125
9.666216e-002 1.071177e-002 -1.029101e+000 184 184 186
9.666216e-002 1.071177e-002 -1.029101e+000 184 184 186
6.067001e-002 3.666350e-003 -1.011492e+000 142 143 145
1.784621e-001 -4.478472e-002 -1.072989e+000 93 76 56
8.225977e-002 8.264454e-002 -1.032428e+000 80 70 58
1.297094e-001 8.133207e-002 -1.058683e+000 171 179 170
9.407236e-002 4.839805e-002 -1.029542e+000 240 230 145
8.754547e-002 2.914711e-002 -1.029224e+000 48 47 46
1.091856e-001 2.472801e-002 -1.040126e+000 18 33 54
5.162592e-002 8.409339e-003 -1.006029e+000 203 204 208
5.162592e-002 8.409339e-003 -1.006029e+000 203 204 208
1.455455e-001 3.800299e-003 -1.058611e+000 208 212 215
1.442806e-001 9.753895e-002 -1.062451e+000 169 171 150
1.469429e-001 8.825052e-002 -1.064809e+000 164 169 147
7.415576e-002 7.924432e-002 -1.028374e+000 16 17 15
1.504713e-001 7.884464e-002 -1.067742e+000 188 195 187
1.094228e-001 3.180985e-002 -1.038202e+000 201 179 93
-8.745419e-004 1.314403e-001 -9.822248e-001 73 79 77
1.407879e-001 7.860700e-002 -1.063972e+000 165 175 167
2.925366e-003 8.394852e-002 -9.905912e-001 66 68 65
1.161914e-001 1.304512e-002 -1.043687e+000 207 210 215
3.431244e-002 1.237889e-002 9.038380e-003 0 255 0
3.255650e-002 1.149988e-002 -4.092305e-002 255 255 0
8.022087e-001 -7.859128e-002 -5.207076e-001 255 0 0
7.585469e-001 -7.327033e-002 -5.444844e-001 255 255 0
